ply
format ascii 1.0
element vertex 1372
property float x
property float y
property float z
property uchar red
property uchar green
property uchar blue
end_header
11.5649605 23.922356 -57.972 255 0 0
11.5649605 23.922356 -58.174 255 0 0
11.5649605 23.922356 -58.376 255 0 0
11.5649605 23.922356 -58.578 255 0 0
11.5649605 23.922356 -58.78 255 0 0
11.5649605 23.922356 -58.982 255 0 0
11.5649605 23.922356 -59.184 255 0 0
11.5649605 23.922356 -59.386 255 0 0
11.5649605 23.922356 -59.588 255 0 0
11.5649605 23.922356 -59.79 255 0 0
11.5649605 23.922356 -59.992 255 0 0
11.5649605 23.922356 -60.194 255 0 0
11.5649605 23.922356 -60.396 255 0 0
11.5649605 23.922356 -60.598 255 0 0
11.5649605 23.922356 -60.8 255 0 0
11.5649605 23.922356 -61.002 255 0 0
11.5649605 23.922356 -61.204 255 0 0
11.5649605 23.922356 -61.406 255 0 0
11.5649605 23.922356 -61.608 255 0 0
11.5649605 23.922356 -61.81 255 0 0
11.5649605 23.922356 -62.012 255 0 0
11.5649605 23.922356 -62.214 255 0 0
11.5649605 23.922356 -62.416 255 0 0
11.5649605 23.922356 -62.618 255 0 0
11.712854 24.229345 -62.789 255 0 0
11.5649605 23.922356 -63.022 255 0 0
11.5649605 23.922356 -63.224 255 0 0
11.712854 24.229345 -63.394 255 0 0
11.712854 24.229345 -63.596 255 0 0
11.5649605 23.922356 -63.83 255 0 0
11.5649605 23.922356 -64.032 255 0 0
11.712854 24.229345 -64.202 255 0 0
79.289276 164.01895 -64.003 255 0 0
79.377335 164.20131 -64.133 255 0 0
79.20122 163.8366 -64.339 255 0 0
79.20122 163.8366 -64.495 255 0 0
79.1138 163.6533 -64.676 255 0 0
79.0248 163.4703 -64.856 255 0 0
78.936745 163.28795 -65.038 255 0 0
78.936745 163.28795 -65.194 255 0 0
78.936745 163.28795 -65.35 255 0 0
78.936745 163.28795 -65.505 255 0 0
78.936745 163.28795 -65.661 255 0 0
78.936745 163.28795 -65.817 255 0 0
78.936745 163.28795 -65.973 255 0 0
78.936745 163.28795 -66.129 255 0 0
78.84775 163.10495 -66.311 255 0 0
78.84775 163.10495 -66.467 255 0 0
78.84775 163.10495 -66.623 255 0 0
78.84775 163.10495 -66.779 255 0 0
78.84775 163.10495 -66.935 255 0 0
78.84775 163.10495 -67.091 255 0 0
78.84775 163.10495 -67.247 255 0 0
78.84775 163.10495 -67.403 255 0 0
78.936745 163.28795 -67.533 255 0 0
78.936745 163.28795 -67.689 255 0 0
78.936745 163.28795 -67.845 255 0 0
78.936745 163.28795 -68.001 255 0 0
78.84775 163.10495 -68.183 255 0 0
78.84775 163.10495 -68.339 255 0 0
78.936745 163.28795 -68.469 255 0 0
78.936745 163.28795 -68.625 255 0 0
78.936745 163.28795 -68.781 255 0 0
79.0248 163.4703 -68.91 255 0 0
10.11234 22.713055 2.43 255 0 0
10.11234 22.713055 2.228 255 0 0
10.11234 22.713055 2.025 255 0 0
10.11234 22.713055 1.823 255 0 0
10.11234 22.713055 1.62 255 0 0
10.11234 22.713055 1.418 255 0 0
10.11234 22.713055 1.215 255 0 0
10.11234 22.713055 1.013 255 0 0
10.11234 22.713055 0.81 255 0 0
10.11234 22.713055 0.608 255 0 0
10.11234 22.713055 0.405 255 0 0
10.252359 23.025875 0.202 255 0 0
10.39079 23.33895 -0.202 255 0 0
10.39079 23.33895 -0.405 255 0 0
10.529888 23.651102 -0.607 255 0 0
10.668987 23.963253 -0.808 255 0 0
10.668987 23.963253 -1.01 255 0 0
10.668987 23.963253 -1.213 255 0 0
10.668987 23.963253 -1.415 255 0 0
10.668987 23.963253 -1.617 255 0 0
10.668987 23.963253 -1.819 255 0 0
10.668987 23.963253 -2.021 255 0 0
10.668987 23.963253 -2.223 255 0 0
10.668987 23.963253 -2.425 255 0 0
10.668987 23.963253 -2.627 255 0 0
10.807835 24.273815 -2.828 255 0 0
10.807835 24.273815 -3.03 255 0 0
10.807835 24.273815 -3.232 255 0 0
10.807835 24.273815 -3.434 255 0 0
10.807835 24.273815 -3.636 255 0 0
10.807835 24.273815 -3.838 255 0 0
10.807835 24.273815 -4.04 255 0 0
10.807835 24.273815 -4.242 255 0 0
10.807835 24.273815 -4.444 255 0 0
10.807835 24.273815 -4.646 255 0 0
10.807835 24.273815 -4.848 255 0 0
10.807835 24.273815 -5.05 255 0 0
10.807835 24.273815 -5.252 255 0 0
10.807835 24.273815 -5.454 255 0 0
10.807835 24.273815 -5.656 255 0 0
10.807835 24.273815 -5.858 255 0 0
10.807835 24.273815 -6.06 255 0 0
10.807835 24.273815 -6.262 255 0 0
10.807835 24.273815 -6.464 255 0 0
10.807835 24.273815 -6.666 255 0 0
10.807835 24.273815 -6.868 255 0 0
10.807835 24.273815 -7.07 255 0 0
10.807835 24.273815 -7.272 255 0 0
10.807835 24.273815 -7.474 255 0 0
10.807835 24.273815 -7.676 255 0 0
10.807835 24.273815 -7.878 255 0 0
10.807835 24.273815 -8.08 255 0 0
10.807835 24.273815 -8.282 255 0 0
10.807835 24.273815 -8.484 255 0 0
10.807835 24.273815 -8.686 255 0 0
10.807835 24.273815 -8.888 255 0 0
10.668987 23.963253 -9.094 255 0 0
10.668987 23.963253 -9.296 255 0 0
10.668987 23.963253 -9.499 255 0 0
10.668987 23.963253 -9.701 255 0 0
10.668987 23.963253 -9.903 255 0 0
10.668987 23.963253 -10.105 255 0 0
10.668987 23.963253 -10.307 255 0 0
10.668987 23.963253 -10.509 255 0 0
10.668987 23.963253 -10.711 255 0 0
10.668987 23.963253 -10.913 255 0 0
10.668987 23.963253 -11.115 255 0 0
10.668987 23.963253 -11.317 255 0 0
10.668987 23.963253 -11.519 255 0 0
10.668987 23.963253 -11.722 255 0 0
10.668987 23.963253 -11.924 255 0 0
10.668987 23.963253 -12.126 255 0 0
10.668987 23.963253 -12.328 255 0 0
10.668987 23.963253 -12.53 255 0 0
10.668987 23.963253 -12.732 255 0 0
10.668987 23.963253 -12.934 255 0 0
10.668987 23.963253 -13.136 255 0 0
10.668987 23.963253 -13.338 255 0 0
10.668987 23.963253 -13.54 255 0 0
10.668987 23.963253 -13.743 255 0 0
10.668987 23.963253 -13.945 255 0 0
10.668987 23.963253 -14.147 255 0 0
10.668987 23.963253 -14.349 255 0 0
10.668987 23.963253 -14.551 255 0 0
10.668987 23.963253 -14.753 255 0 0
10.668987 23.963253 -14.955 255 0 0
10.668987 23.963253 -15.157 255 0 0
10.668987 23.963253 -15.359 255 0 0
10.668987 23.963253 -15.561 255 0 0
10.668987 23.963253 -15.763 255 0 0
10.668987 23.963253 -15.966 255 0 0
10.668987 23.963253 -16.168 255 0 0
10.668987 23.963253 -16.37 255 0 0
10.807835 24.273815 -16.564 255 0 0
10.807835 24.273815 -16.766 255 0 0
10.807835 24.273815 -16.968 255 0 0
10.807835 24.273815 -17.17 255 0 0
10.807835 24.273815 -17.372 255 0 0
10.807835 24.273815 -17.574 255 0 0
10.807835 24.273815 -17.776 255 0 0
10.807835 24.273815 -17.978 255 0 0
10.807835 24.273815 -18.18 255 0 0
10.668987 23.963253 -18.391 255 0 0
10.807835 24.273815 -18.584 255 0 0
10.807835 24.273815 -18.786 255 0 0
10.807835 24.273815 -18.987 255 0 0
10.807835 24.273815 -19.189 255 0 0
10.807835 24.273815 -19.391 255 0 0
10.9460125 24.585299 -19.584 255 0 0
10.9460125 24.585299 -19.786 255 0 0
10.9460125 24.585299 -19.987 255 0 0
10.9460125 24.585299 -20.189 255 0 0
10.9460125 24.585299 -20.391 255 0 0
10.9460125 24.585299 -20.593 255 0 0
10.9460125 24.585299 -20.795 255 0 0
11.08419 24.896782 -20.986 255 0 0
11.08419 24.896782 -21.188 255 0 0
11.223038 25.207344 -21.379 255 0 0
11.223038 25.207344 -21.581 255 0 0
11.360964 25.517237 -21.772 255 0 0
11.360964 25.517237 -21.973 255 0 0
11.360964 25.517237 -22.175 255 0 0
11.499811 25.827799 -22.365 255 0 0
11.499811 25.827799 -22.567 255 0 0
11.637737 26.137691 -22.757 255 0 0
11.637737 26.137691 -22.958 255 0 0
11.774742 26.446915 -23.148 255 0 0
11.774742 26.446915 -23.349 255 0 0
11.774742 26.446915 -23.551 255 0 0
11.774742 26.446915 -23.752 255 0 0
11.774742 26.446915 -23.953 255 0 0
11.774742 26.446915 -24.154 255 0 0
11.774742 26.446915 -24.356 255 0 0
11.774742 26.446915 -24.557 255 0 0
11.774742 26.446915 -24.758 255 0 0
11.774742 26.446915 -24.96 255 0 0
11.774742 26.446915 -25.161 255 0 0
11.774742 26.446915 -25.362 255 0 0
11.774742 26.446915 -25.564 255 0 0
11.774742 26.446915 -25.765 255 0 0
11.774742 26.446915 -25.966 255 0 0
11.774742 26.446915 -26.167 255 0 0
11.774742 26.446915 -26.369 255 0 0
11.774742 26.446915 -26.57 255 0 0
11.774742 26.446915 -26.771 255 0 0
11.774742 26.446915 -26.973 255 0 0
11.774742 26.446915 -27.174 255 0 0
11.774742 26.446915 -27.375 255 0 0
11.774742 26.446915 -27.576 255 0 0
11.774742 26.446915 -27.778 255 0 0
11.774742 26.446915 -27.979 255 0 0
11.774742 26.446915 -28.18 255 0 0
11.774742 26.446915 -28.382 255 0 0
11.774742 26.446915 -28.583 255 0 0
11.774742 26.446915 -28.784 255 0 0
11.774742 26.446915 -28.985 255 0 0
11.774742 26.446915 -29.187 255 0 0
11.774742 26.446915 -29.388 255 0 0
11.774742 26.446915 -29.589 255 0 0
11.774742 26.446915 -29.791 255 0 0
11.774742 26.446915 -29.992 255 0 0
11.774742 26.446915 -30.193 255 0 0
11.774742 26.446915 -30.394 255 0 0
11.774742 26.446915 -30.596 255 0 0
11.774742 26.446915 -30.797 255 0 0
11.774742 26.446915 -30.998 255 0 0
11.774742 26.446915 -31.2 255 0 0
11.774742 26.446915 -31.401 255 0 0
11.774742 26.446915 -31.602 255 0 0
11.774742 26.446915 -31.803 255 0 0
11.774742 26.446915 -32.005 255 0 0
11.774742 26.446915 -32.206 255 0 0
11.774742 26.446915 -32.407 255 0 0
11.774742 26.446915 -32.609 255 0 0
11.774742 26.446915 -32.81 255 0 0
11.774742 26.446915 -33.011 255 0 0
11.774742 26.446915 -33.212 255 0 0
11.774742 26.446915 -33.414 255 0 0
11.774742 26.446915 -33.615 255 0 0
11.774742 26.446915 -33.816 255 0 0
11.774742 26.446915 -34.018 255 0 0
11.774742 26.446915 -34.219 255 0 0
11.774742 26.446915 -34.42 255 0 0
11.774742 26.446915 -34.621 255 0 0
11.774742 26.446915 -34.823 255 0 0
11.637737 26.137691 -35.042 255 0 0
11.637737 26.137691 -35.243 255 0 0
11.774742 26.446915 -35.427 255 0 0
11.774742 26.446915 -35.628 255 0 0
11.774742 26.446915 -35.829 255 0 0
11.774742 26.446915 -36.03 255 0 0
11.774742 26.446915 -36.232 255 0 0
11.774742 26.446915 -36.433 255 0 0
11.774742 26.446915 -36.634 255 0 0
11.774742 26.446915 -36.836 255 0 0
11.774742 26.446915 -37.037 255 0 0
11.774742 26.446915 -37.238 255 0 0
11.774742 26.446915 -37.439 255 0 0
11.774742 26.446915 -37.641 255 0 0
11.774742 26.446915 -37.842 255 0 0
11.774742 26.446915 -38.043 255 0 0
11.774742 26.446915 -38.245 255 0 0
11.774742 26.446915 -38.446 255 0 0
11.774742 26.446915 -38.647 255 0 0
11.774742 26.446915 -38.848 255 0 0
11.774742 26.446915 -39.05 255 0 0
11.774742 26.446915 -39.251 255 0 0
11.774742 26.446915 -39.452 255 0 0
11.774742 26.446915 -39.654 255 0 0
11.774742 26.446915 -39.855 255 0 0
11.774742 26.446915 -40.056 255 0 0
11.774742 26.446915 -40.257 255 0 0
11.774742 26.446915 -40.459 255 0 0
11.774742 26.446915 -40.66 255 0 0
11.774742 26.446915 -40.861 255 0 0
11.774742 26.446915 -41.063 255 0 0
11.774742 26.446915 -41.264 255 0 0
11.774742 26.446915 -41.465 255 0 0
11.774742 26.446915 -41.666 255 0 0
11.774742 26.446915 -41.868 255 0 0
11.774742 26.446915 -42.069 255 0 0
11.774742 26.446915 -42.27 255 0 0
11.774742 26.446915 -42.472 255 0 0
11.774742 26.446915 -42.673 255 0 0
11.774742 26.446915 -42.874 255 0 0
11.774742 26.446915 -43.076 255 0 0
11.774742 26.446915 -43.277 255 0 0
11.774742 26.446915 -43.478 255 0 0
11.774742 26.446915 -43.679 255 0 0
11.774742 26.446915 -43.881 255 0 0
11.774742 26.446915 -44.082 255 0 0
11.774742 26.446915 -44.283 255 0 0
11.774742 26.446915 -44.485 255 0 0
11.774742 26.446915 -44.686 255 0 0
11.774742 26.446915 -44.887 255 0 0
11.774742 26.446915 -45.088 255 0 0
11.774742 26.446915 -45.29 255 0 0
11.774742 26.446915 -45.491 255 0 0
11.774742 26.446915 -45.692 255 0 0
11.774742 26.446915 -45.894 255 0 0
11.774742 26.446915 -46.095 255 0 0
11.774742 26.446915 -46.296 255 0 0
11.774742 26.446915 -46.497 255 0 0
11.774742 26.446915 -46.699 255 0 0
11.774742 26.446915 -46.9 255 0 0
11.774742 26.446915 -47.101 255 0 0
11.774742 26.446915 -47.303 255 0 0
11.774742 26.446915 -47.504 255 0 0
11.774742 26.446915 -47.705 255 0 0
11.774742 26.446915 -47.906 255 0 0
11.774742 26.446915 -48.108 255 0 0
11.774742 26.446915 -48.309 255 0 0
11.774742 26.446915 -48.51 255 0 0
11.774742 26.446915 -48.712 255 0 0
11.774742 26.446915 -48.913 255 0 0
11.774742 26.446915 -49.114 255 0 0
11.774742 26.446915 -49.315 255 0 0
11.774742 26.446915 -49.517 255 0 0
11.774742 26.446915 -49.718 255 0 0
11.774742 26.446915 -49.919 255 0 0
11.774742 26.446915 -50.121 255 0 0
11.774742 26.446915 -50.322 255 0 0
11.774742 26.446915 -50.523 255 0 0
11.774742 26.446915 -50.724 255 0 0
11.774742 26.446915 -50.926 255 0 0
11.774742 26.446915 -51.127 255 0 0
11.774742 26.446915 -51.328 255 0 0
11.499811 25.827799 -51.581 255 0 0
11.499811 25.827799 -51.783 255 0 0
11.499811 25.827799 -51.984 255 0 0
11.360964 25.517237 -52.212 255 0 0
11.360964 25.517237 -52.413 255 0 0
11.360964 25.517237 -52.615 255 0 0
11.223038 25.207344 -52.843 255 0 0
11.223038 25.207344 -53.045 255 0 0
11.08419 24.896782 -53.273 255 0 0
11.08419 24.896782 -53.475 255 0 0
10.9460125 24.585299 -53.704 255 0 0
10.9460125 24.585299 -53.906 255 0 0
10.807835 24.273815 -54.135 255 0 0
10.807835 24.273815 -54.337 255 0 0
10.807835 24.273815 -54.539 255 0 0
10.807835 24.273815 -54.741 255 0 0
10.807835 24.273815 -54.943 255 0 0
10.807835 24.273815 -55.145 255 0 0
10.807835 24.273815 -55.347 255 0 0
10.807835 24.273815 -55.549 255 0 0
10.807835 24.273815 -55.751 255 0 0
10.807835 24.273815 -55.953 255 0 0
10.807835 24.273815 -56.155 255 0 0
10.807835 24.273815 -56.357 255 0 0
10.807835 24.273815 -56.558 255 0 0
10.807835 24.273815 -56.76 255 0 0
10.807835 24.273815 -56.962 255 0 0
10.807835 24.273815 -57.164 255 0 0
10.807835 24.273815 -57.366 255 0 0
10.807835 24.273815 -57.568 255 0 0
10.807835 24.273815 -57.77 255 0 0
10.807835 24.273815 -57.972 255 0 0
10.807835 24.273815 -58.174 255 0 0
10.807835 24.273815 -58.376 255 0 0
10.807835 24.273815 -58.578 255 0 0
10.807835 24.273815 -58.78 255 0 0
10.807835 24.273815 -58.982 255 0 0
10.807835 24.273815 -59.184 255 0 0
10.807835 24.273815 -59.386 255 0 0
10.807835 24.273815 -59.588 255 0 0
10.807835 24.273815 -59.79 255 0 0
10.807835 24.273815 -59.992 255 0 0
10.807835 24.273815 -60.194 255 0 0
10.807835 24.273815 -60.396 255 0 0
10.807835 24.273815 -60.598 255 0 0
10.807835 24.273815 -60.8 255 0 0
10.807835 24.273815 -61.002 255 0 0
10.807835 24.273815 -61.204 255 0 0
10.807835 24.273815 -61.406 255 0 0
10.807835 24.273815 -61.608 255 0 0
10.807835 24.273815 -61.81 255 0 0
10.807835 24.273815 -62.012 255 0 0
10.807835 24.273815 -62.214 255 0 0
10.9460125 24.585299 -62.385 255 0 0
10.9460125 24.585299 -62.587 255 0 0
10.9460125 24.585299 -62.789 255 0 0
10.9460125 24.585299 -62.991 255 0 0
10.9460125 24.585299 -63.193 255 0 0
10.9460125 24.585299 -63.394 255 0 0
10.9460125 24.585299 -63.596 255 0 0
10.9460125 24.585299 -63.798 255 0 0
10.807835 24.273815 -64.032 255 0 0
10.9460125 24.585299 -64.202 255 0 0
74.18048 166.61359 -63.978 255 0 0
74.09819 166.42856 -64.158 255 0 0
73.93429 166.05757 -64.364 255 0 0
73.85108 165.87187 -64.545 255 0 0
73.85108 165.87187 -64.701 255 0 0
73.7688 165.68684 -64.882 255 0 0
73.7688 165.68684 -65.038 255 0 0
73.685585 165.50114 -65.219 255 0 0
73.685585 165.50114 -65.375 255 0 0
73.60305 165.31451 -65.556 255 0 0
73.60305 165.31451 -65.712 255 0 0
73.60305 165.31451 -65.868 255 0 0
73.685585 165.50114 -65.999 255 0 0
73.685585 165.50114 -66.155 255 0 0
73.685585 165.50114 -66.311 255 0 0
73.685585 165.50114 -66.467 255 0 0
73.685585 165.50114 -66.623 255 0 0
73.7688 165.68684 -66.753 255 0 0
73.685585 165.50114 -66.935 255 0 0
73.685585 165.50114 -67.091 255 0 0
73.685585 165.50114 -67.247 255 0 0
73.685585 165.50114 -67.403 255 0 0
73.685585 165.50114 -67.559 255 0 0
73.685585 165.50114 -67.715 255 0 0
73.7688 165.68684 -67.845 255 0 0
73.7688 165.68684 -68.001 255 0 0
73.7688 165.68684 -68.157 255 0 0
73.7688 165.68684 -68.313 255 0 0
73.7688 165.68684 -68.469 255 0 0
73.7688 165.68684 -68.625 255 0 0
73.7688 165.68684 -68.781 255 0 0
73.7688 165.68684 -68.937 255 0 0
9.264488 22.701519 2.431 255 0 0
9.393915 23.019484 2.228 255 0 0
9.393915 23.019484 2.025 255 0 0
9.393915 23.019484 1.823 255 0 0
9.393915 23.019484 1.62 255 0 0
9.393915 23.019484 1.418 255 0 0
9.393915 23.019484 1.215 255 0 0
9.52404 23.336548 1.012 255 0 0
9.52404 23.336548 0.81 255 0 0
9.52404 23.336548 0.607 255 0 0
9.52404 23.336548 0.405 255 0 0
9.652568 23.653816 0.202 255 0 0
9.781794 23.970182 -0.202 255 0 0
9.781794 23.970182 -0.404 255 0 0
9.911019 24.28655 -0.606 255 0 0
10.040043 24.60132 -0.808 255 0 0
9.911019 24.28655 -1.01 255 0 0
9.911019 24.28655 -1.213 255 0 0
9.911019 24.28655 -1.415 255 0 0
9.911019 24.28655 -1.617 255 0 0
9.911019 24.28655 -1.819 255 0 0
9.911019 24.28655 -2.021 255 0 0
9.911019 24.28655 -2.223 255 0 0
9.911019 24.28655 -2.425 255 0 0
10.168368 24.91699 -2.625 255 0 0
10.168368 24.91699 -2.827 255 0 0
10.168368 24.91699 -3.028 255 0 0
10.168368 24.91699 -3.23 255 0 0
10.168368 24.91699 -3.432 255 0 0
10.168368 24.91699 -3.634 255 0 0
10.168368 24.91699 -3.836 255 0 0
10.168368 24.91699 -4.038 255 0 0
10.168368 24.91699 -4.24 255 0 0
10.168368 24.91699 -4.442 255 0 0
10.168368 24.91699 -4.644 255 0 0
10.168368 24.91699 -4.845 255 0 0
10.168368 24.91699 -5.047 255 0 0
10.168368 24.91699 -5.249 255 0 0
10.168368 24.91699 -5.451 255 0 0
10.168368 24.91699 -5.653 255 0 0
10.168368 24.91699 -5.855 255 0 0
10.168368 24.91699 -6.057 255 0 0
10.168368 24.91699 -6.259 255 0 0
10.168368 24.91699 -6.461 255 0 0
10.168368 24.91699 -6.662 255 0 0
10.168368 24.91699 -6.864 255 0 0
10.168368 24.91699 -7.066 255 0 0
10.168368 24.91699 -7.268 255 0 0
10.168368 24.91699 -7.47 255 0 0
10.168368 24.91699 -7.672 255 0 0
10.168368 24.91699 -7.874 255 0 0
10.168368 24.91699 -8.076 255 0 0
10.168368 24.91699 -8.278 255 0 0
10.168368 24.91699 -8.48 255 0 0
10.168368 24.91699 -8.681 255 0 0
10.168368 24.91699 -8.883 255 0 0
10.168368 24.91699 -9.085 255 0 0
10.168368 24.91699 -9.287 255 0 0
10.168368 24.91699 -9.489 255 0 0
10.168368 24.91699 -9.691 255 0 0
10.168368 24.91699 -9.893 255 0 0
10.168368 24.91699 -10.095 255 0 0
10.040043 24.60132 -10.302 255 0 0
10.168368 24.91699 -10.498 255 0 0
10.168368 24.91699 -10.7 255 0 0
10.168368 24.91699 -10.902 255 0 0
10.168368 24.91699 -11.104 255 0 0
10.168368 24.91699 -11.306 255 0 0
10.168368 24.91699 -11.508 255 0 0
10.168368 24.91699 -11.71 255 0 0
10.168368 24.91699 -11.912 255 0 0
10.168368 24.91699 -12.114 255 0 0
10.168368 24.91699 -12.315 255 0 0
10.168368 24.91699 -12.517 255 0 0
10.168368 24.91699 -12.719 255 0 0
10.168368 24.91699 -12.921 255 0 0
10.168368 24.91699 -13.123 255 0 0
10.168368 24.91699 -13.325 255 0 0
10.168368 24.91699 -13.527 255 0 0
10.168368 24.91699 -13.729 255 0 0
10.168368 24.91699 -13.931 255 0 0
10.168368 24.91699 -14.133 255 0 0
10.168368 24.91699 -14.334 255 0 0
10.168368 24.91699 -14.536 255 0 0
10.168368 24.91699 -14.738 255 0 0
10.168368 24.91699 -14.94 255 0 0
10.168368 24.91699 -15.142 255 0 0
10.168368 24.91699 -15.344 255 0 0
10.168368 24.91699 -15.546 255 0 0
10.168368 24.91699 -15.748 255 0 0
10.168368 24.91699 -15.95 255 0 0
10.168368 24.91699 -16.151 255 0 0
10.168368 24.91699 -16.353 255 0 0
10.168368 24.91699 -16.555 255 0 0
10.168368 24.91699 -16.757 255 0 0
10.168368 24.91699 -16.959 255 0 0
10.168368 24.91699 -17.161 255 0 0
10.168368 24.91699 -17.363 255 0 0
10.168368 24.91699 -17.565 255 0 0
10.168368 24.91699 -17.767 255 0 0
10.168368 24.91699 -17.969 255 0 0
10.168368 24.91699 -18.17 255 0 0
10.168368 24.91699 -18.372 255 0 0
10.168368 24.91699 -18.574 255 0 0
10.168368 24.91699 -18.776 255 0 0
10.168368 24.91699 -18.978 255 0 0
10.168368 24.91699 -19.18 255 0 0
10.168368 24.91699 -19.382 255 0 0
10.168368 24.91699 -19.584 255 0 0
10.168368 24.91699 -19.786 255 0 0
10.168368 24.91699 -19.987 255 0 0
10.168368 24.91699 -20.189 255 0 0
10.168368 24.91699 -20.391 255 0 0
10.296695 25.23266 -20.583 255 0 0
10.296695 25.23266 -20.785 255 0 0
10.296695 25.23266 -20.986 255 0 0
10.425718 25.54743 -21.178 255 0 0
10.425718 25.54743 -21.379 255 0 0
10.553842 25.861502 -21.57 255 0 0
10.553842 25.861502 -21.772 255 0 0
10.553842 25.861502 -21.973 255 0 0
10.682866 26.176271 -22.164 255 0 0
10.810989 26.490343 -22.354 255 0 0
10.810989 26.490343 -22.555 255 0 0
10.938214 26.803719 -22.745 255 0 0
10.938214 26.803719 -22.947 255 0 0
10.938214 26.803719 -23.148 255 0 0
10.938214 26.803719 -23.349 255 0 0
10.938214 26.803719 -23.551 255 0 0
10.938214 26.803719 -23.752 255 0 0
10.938214 26.803719 -23.953 255 0 0
10.938214 26.803719 -24.154 255 0 0
10.938214 26.803719 -24.356 255 0 0
10.938214 26.803719 -24.557 255 0 0
10.938214 26.803719 -24.758 255 0 0
10.938214 26.803719 -24.96 255 0 0
10.938214 26.803719 -25.161 255 0 0
10.938214 26.803719 -25.362 255 0 0
10.938214 26.803719 -25.564 255 0 0
10.938214 26.803719 -25.765 255 0 0
10.938214 26.803719 -25.966 255 0 0
10.938214 26.803719 -26.167 255 0 0
10.938214 26.803719 -26.369 255 0 0
10.938214 26.803719 -26.57 255 0 0
10.810989 26.490343 -26.785 255 0 0
10.810989 26.490343 -26.986 255 0 0
10.938214 26.803719 -27.174 255 0 0
10.938214 26.803719 -27.375 255 0 0
10.938214 26.803719 -27.576 255 0 0
10.938214 26.803719 -27.778 255 0 0
10.938214 26.803719 -27.979 255 0 0
10.810989 26.490343 -28.194 255 0 0
10.810989 26.490343 -28.396 255 0 0
10.810989 26.490343 -28.597 255 0 0
10.810989 26.490343 -28.799 255 0 0
10.810989 26.490343 -29.0 255 0 0
10.810989 26.490343 -29.201 255 0 0
10.810989 26.490343 -29.403 255 0 0
10.810989 26.490343 -29.604 255 0 0
10.810989 26.490343 -29.805 255 0 0
10.810989 26.490343 -30.007 255 0 0
10.810989 26.490343 -30.208 255 0 0
10.810989 26.490343 -30.41 255 0 0
10.810989 26.490343 -30.611 255 0 0
10.810989 26.490343 -30.812 255 0 0
10.810989 26.490343 -31.014 255 0 0
10.810989 26.490343 -31.215 255 0 0
10.938214 26.803719 -31.401 255 0 0
10.810989 26.490343 -31.618 255 0 0
10.810989 26.490343 -31.819 255 0 0
10.810989 26.490343 -32.021 255 0 0
10.810989 26.490343 -32.222 255 0 0
10.810989 26.490343 -32.423 255 0 0
10.810989 26.490343 -32.625 255 0 0
10.810989 26.490343 -32.826 255 0 0
10.810989 26.490343 -33.028 255 0 0
10.938214 26.803719 -33.212 255 0 0
10.938214 26.803719 -33.414 255 0 0
10.938214 26.803719 -33.615 255 0 0
10.938214 26.803719 -33.816 255 0 0
10.938214 26.803719 -34.018 255 0 0
10.938214 26.803719 -34.219 255 0 0
10.938214 26.803719 -34.42 255 0 0
10.938214 26.803719 -34.621 255 0 0
10.938214 26.803719 -34.823 255 0 0
10.938214 26.803719 -35.024 255 0 0
10.938214 26.803719 -35.225 255 0 0
10.938214 26.803719 -35.427 255 0 0
10.938214 26.803719 -35.628 255 0 0
10.810989 26.490343 -35.847 255 0 0
10.938214 26.803719 -36.03 255 0 0
10.938214 26.803719 -36.232 255 0 0
10.938214 26.803719 -36.433 255 0 0
10.938214 26.803719 -36.634 255 0 0
10.810989 26.490343 -36.854 255 0 0
10.810989 26.490343 -37.055 255 0 0
10.810989 26.490343 -37.257 255 0 0
10.810989 26.490343 -37.458 255 0 0
10.810989 26.490343 -37.66 255 0 0
10.810989 26.490343 -37.861 255 0 0
10.810989 26.490343 -38.062 255 0 0
10.810989 26.490343 -38.264 255 0 0
10.810989 26.490343 -38.465 255 0 0
10.810989 26.490343 -38.667 255 0 0
10.810989 26.490343 -38.868 255 0 0
10.938214 26.803719 -39.05 255 0 0
10.938214 26.803719 -39.251 255 0 0
10.938214 26.803719 -39.452 255 0 0
10.938214 26.803719 -39.654 255 0 0
10.938214 26.803719 -39.855 255 0 0
10.810989 26.490343 -40.076 255 0 0
10.810989 26.490343 -40.278 255 0 0
10.938214 26.803719 -40.459 255 0 0
10.810989 26.490343 -40.68 255 0 0
10.810989 26.490343 -40.882 255 0 0
10.810989 26.490343 -41.083 255 0 0
10.810989 26.490343 -41.285 255 0 0
10.810989 26.490343 -41.486 255 0 0
10.810989 26.490343 -41.687 255 0 0
10.810989 26.490343 -41.889 255 0 0
10.810989 26.490343 -42.09 255 0 0
10.810989 26.490343 -42.292 255 0 0
10.810989 26.490343 -42.493 255 0 0
10.810989 26.490343 -42.694 255 0 0
10.938214 26.803719 -42.874 255 0 0
10.938214 26.803719 -43.076 255 0 0
10.938214 26.803719 -43.277 255 0 0
10.938214 26.803719 -43.478 255 0 0
10.938214 26.803719 -43.679 255 0 0
10.938214 26.803719 -43.881 255 0 0
10.810989 26.490343 -44.104 255 0 0
10.938214 26.803719 -44.283 255 0 0
10.938214 26.803719 -44.485 255 0 0
10.810989 26.490343 -44.708 255 0 0
10.938214 26.803719 -44.887 255 0 0
10.810989 26.490343 -45.111 255 0 0
10.938214 26.803719 -45.29 255 0 0
10.810989 26.490343 -45.514 255 0 0
10.938214 26.803719 -45.692 255 0 0
10.938214 26.803719 -45.894 255 0 0
10.938214 26.803719 -46.095 255 0 0
10.938214 26.803719 -46.296 255 0 0
10.938214 26.803719 -46.497 255 0 0
10.938214 26.803719 -46.699 255 0 0
10.938214 26.803719 -46.9 255 0 0
10.938214 26.803719 -47.101 255 0 0
10.938214 26.803719 -47.303 255 0 0
10.938214 26.803719 -47.504 255 0 0
10.938214 26.803719 -47.705 255 0 0
10.938214 26.803719 -47.906 255 0 0
10.938214 26.803719 -48.108 255 0 0
10.938214 26.803719 -48.309 255 0 0
10.938214 26.803719 -48.51 255 0 0
10.810989 26.490343 -48.736 255 0 0
10.810989 26.490343 -48.937 255 0 0
10.810989 26.490343 -49.139 255 0 0
10.810989 26.490343 -49.34 255 0 0
10.938214 26.803719 -49.517 255 0 0
10.938214 26.803719 -49.718 255 0 0
10.938214 26.803719 -49.919 255 0 0
10.938214 26.803719 -50.121 255 0 0
10.938214 26.803719 -50.322 255 0 0
10.938214 26.803719 -50.523 255 0 0
10.938214 26.803719 -50.724 255 0 0
10.938214 26.803719 -50.926 255 0 0
10.938214 26.803719 -51.127 255 0 0
10.938214 26.803719 -51.328 255 0 0
10.938214 26.803719 -51.53 255 0 0
10.938214 26.803719 -51.731 255 0 0
10.682866 26.176271 -51.984 255 0 0
10.682866 26.176271 -52.186 255 0 0
10.682866 26.176271 -52.387 255 0 0
10.682866 26.176271 -52.589 255 0 0
10.553842 25.861502 -52.817 255 0 0
10.425718 25.54743 -53.045 255 0 0
10.425718 25.54743 -53.246 255 0 0
10.296695 25.23266 -53.475 255 0 0
10.168368 24.91699 -53.704 255 0 0
10.168368 24.91699 -53.906 255 0 0
10.168368 24.91699 -54.107 255 0 0
10.168368 24.91699 -54.309 255 0 0
10.168368 24.91699 -54.511 255 0 0
10.040043 24.60132 -54.741 255 0 0
10.040043 24.60132 -54.943 255 0 0
10.040043 24.60132 -55.145 255 0 0
10.040043 24.60132 -55.347 255 0 0
9.911019 24.28655 -55.576 255 0 0
9.911019 24.28655 -55.779 255 0 0
9.911019 24.28655 -55.981 255 0 0
9.911019 24.28655 -56.183 255 0 0
9.911019 24.28655 -56.385 255 0 0
10.040043 24.60132 -56.558 255 0 0
10.040043 24.60132 -56.76 255 0 0
10.040043 24.60132 -56.962 255 0 0
10.040043 24.60132 -57.164 255 0 0
10.040043 24.60132 -57.366 255 0 0
10.040043 24.60132 -57.568 255 0 0
10.040043 24.60132 -57.77 255 0 0
9.911019 24.28655 -58.002 255 0 0
10.040043 24.60132 -58.174 255 0 0
10.040043 24.60132 -58.376 255 0 0
9.911019 24.28655 -58.608 255 0 0
9.911019 24.28655 -58.81 255 0 0
10.040043 24.60132 -58.982 255 0 0
10.040043 24.60132 -59.184 255 0 0
10.040043 24.60132 -59.386 255 0 0
10.040043 24.60132 -59.588 255 0 0
10.040043 24.60132 -59.79 255 0 0
10.040043 24.60132 -59.992 255 0 0
10.040043 24.60132 -60.194 255 0 0
10.040043 24.60132 -60.396 255 0 0
10.040043 24.60132 -60.598 255 0 0
10.040043 24.60132 -60.8 255 0 0
10.040043 24.60132 -61.002 255 0 0
10.040043 24.60132 -61.204 255 0 0
10.040043 24.60132 -61.406 255 0 0
10.040043 24.60132 -61.608 255 0 0
10.040043 24.60132 -61.81 255 0 0
10.040043 24.60132 -62.012 255 0 0
10.040043 24.60132 -62.214 255 0 0
10.040043 24.60132 -62.416 255 0 0
10.040043 24.60132 -62.618 255 0 0
10.040043 24.60132 -62.82 255 0 0
10.040043 24.60132 -63.022 255 0 0
10.040043 24.60132 -63.224 255 0 0
10.040043 24.60132 -63.426 255 0 0
10.168368 24.91699 -63.596 255 0 0
10.040043 24.60132 -63.83 255 0 0
10.168368 24.91699 -64.0 255 0 0
68.98755 169.04807 -63.953 255 0 0
68.910416 168.86143 -64.133 255 0 0
68.757545 168.48639 -64.339 255 0 0
68.681816 168.29796 -64.52 255 0 0
68.681816 168.29796 -64.676 255 0 0
68.60448 168.10974 -64.856 255 0 0
68.528046 167.92221 -65.038 255 0 0
68.450714 167.734 -65.219 255 0 0
68.450714 167.734 -65.375 255 0 0
68.450714 167.734 -65.531 255 0 0
68.450714 167.734 -65.687 255 0 0
68.450714 167.734 -65.843 255 0 0
68.450714 167.734 -65.999 255 0 0
68.450714 167.734 -66.155 255 0 0
68.450714 167.734 -66.311 255 0 0
68.450714 167.734 -66.467 255 0 0
68.450714 167.734 -66.623 255 0 0
68.450714 167.734 -66.779 255 0 0
68.450714 167.734 -66.935 255 0 0
68.450714 167.734 -67.091 255 0 0
68.450714 167.734 -67.247 255 0 0
68.450714 167.734 -67.403 255 0 0
68.450714 167.734 -67.559 255 0 0
68.528046 167.92221 -67.689 255 0 0
68.528046 167.92221 -67.845 255 0 0
68.528046 167.92221 -68.001 255 0 0
68.528046 167.92221 -68.157 255 0 0
68.528046 167.92221 -68.313 255 0 0
68.528046 167.92221 -68.469 255 0 0
68.528046 167.92221 -68.625 255 0 0
68.528046 167.92221 -68.781 255 0 0
68.528046 167.92221 -68.937 255 0 0
8.5468445 22.981321 2.431 255 0 0
8.666221 23.303194 2.228 255 0 0
8.666221 23.303194 2.025 255 0 0
8.786323 23.624191 1.822 255 0 0
8.786323 23.624191 1.619 255 0 0
8.786323 23.624191 1.417 255 0 0
8.786323 23.624191 1.214 255 0 0
8.786323 23.624191 1.012 255 0 0
8.786323 23.624191 0.81 255 0 0
8.786323 23.624191 0.607 255 0 0
8.786323 23.624191 0.405 255 0 0
8.904821 23.94534 0.202 255 0 0
8.904821 23.94534 -0.202 255 0 0
9.024045 24.265608 -0.404 255 0 0
9.14327 24.585878 -0.606 255 0 0
9.262342 24.904547 -0.808 255 0 0
9.262342 24.904547 -1.01 255 0 0
9.14327 24.585878 -1.213 255 0 0
9.262342 24.904547 -1.414 255 0 0
9.38069 25.22409 -1.615 255 0 0
9.262342 24.904547 -1.818 255 0 0
9.262342 24.904547 -2.02 255 0 0
9.262342 24.904547 -2.222 255 0 0
9.262342 24.904547 -2.424 255 0 0
9.262342 24.904547 -2.626 255 0 0
9.262342 24.904547 -2.828 255 0 0
9.262342 24.904547 -3.03 255 0 0
9.38069 25.22409 -3.23 255 0 0
9.262342 24.904547 -3.434 255 0 0
9.262342 24.904547 -3.636 255 0 0
9.38069 25.22409 -3.836 255 0 0
9.38069 25.22409 -4.038 255 0 0
9.38069 25.22409 -4.24 255 0 0
9.38069 25.22409 -4.442 255 0 0
9.38069 25.22409 -4.644 255 0 0
9.38069 25.22409 -4.845 255 0 0
9.38069 25.22409 -5.047 255 0 0
9.38069 25.22409 -5.249 255 0 0
9.38069 25.22409 -5.451 255 0 0
9.38069 25.22409 -5.653 255 0 0
9.38069 25.22409 -5.855 255 0 0
9.38069 25.22409 -6.057 255 0 0
9.38069 25.22409 -6.259 255 0 0
9.262342 24.904547 -6.464 255 0 0
9.38069 25.22409 -6.662 255 0 0
9.38069 25.22409 -6.864 255 0 0
9.38069 25.22409 -7.066 255 0 0
9.262342 24.904547 -7.272 255 0 0
9.38069 25.22409 -7.47 255 0 0
9.38069 25.22409 -7.672 255 0 0
9.38069 25.22409 -7.874 255 0 0
9.38069 25.22409 -8.076 255 0 0
9.38069 25.22409 -8.278 255 0 0
9.38069 25.22409 -8.48 255 0 0
9.38069 25.22409 -8.681 255 0 0
9.38069 25.22409 -8.883 255 0 0
9.38069 25.22409 -9.085 255 0 0
9.38069 25.22409 -9.287 255 0 0
9.38069 25.22409 -9.489 255 0 0
9.38069 25.22409 -9.691 255 0 0
9.262342 24.904547 -9.898 255 0 0
9.262342 24.904547 -10.1 255 0 0
9.262342 24.904547 -10.302 255 0 0
9.262342 24.904547 -10.504 255 0 0
9.262342 24.904547 -10.706 255 0 0
9.262342 24.904547 -10.908 255 0 0
9.262342 24.904547 -11.11 255 0 0
9.262342 24.904547 -11.312 255 0 0
9.262342 24.904547 -11.514 255 0 0
9.262342 24.904547 -11.716 255 0 0
9.262342 24.904547 -11.918 255 0 0
9.262342 24.904547 -12.12 255 0 0
9.262342 24.904547 -12.322 255 0 0
9.262342 24.904547 -12.524 255 0 0
9.262342 24.904547 -12.726 255 0 0
9.262342 24.904547 -12.928 255 0 0
9.38069 25.22409 -13.123 255 0 0
9.38069 25.22409 -13.325 255 0 0
9.38069 25.22409 -13.527 255 0 0
9.38069 25.22409 -13.729 255 0 0
9.38069 25.22409 -13.931 255 0 0
9.38069 25.22409 -14.133 255 0 0
9.38069 25.22409 -14.334 255 0 0
9.38069 25.22409 -14.536 255 0 0
9.38069 25.22409 -14.738 255 0 0
9.38069 25.22409 -14.94 255 0 0
9.262342 24.904547 -15.15 255 0 0
9.38069 25.22409 -15.344 255 0 0
9.38069 25.22409 -15.546 255 0 0
9.38069 25.22409 -15.748 255 0 0
9.38069 25.22409 -15.95 255 0 0
9.38069 25.22409 -16.151 255 0 0
9.38069 25.22409 -16.353 255 0 0
9.38069 25.22409 -16.555 255 0 0
9.38069 25.22409 -16.757 255 0 0
9.38069 25.22409 -16.959 255 0 0
9.38069 25.22409 -17.161 255 0 0
9.38069 25.22409 -17.363 255 0 0
9.262342 24.904547 -17.574 255 0 0
9.38069 25.22409 -17.767 255 0 0
9.38069 25.22409 -17.969 255 0 0
9.262342 24.904547 -18.18 255 0 0
9.38069 25.22409 -18.372 255 0 0
9.262342 24.904547 -18.584 255 0 0
9.38069 25.22409 -18.776 255 0 0
9.262342 24.904547 -18.987 255 0 0
9.262342 24.904547 -19.189 255 0 0
9.38069 25.22409 -19.382 255 0 0
9.262342 24.904547 -19.593 255 0 0
9.262342 24.904547 -19.795 255 0 0
9.262342 24.904547 -19.997 255 0 0
9.499037 25.543636 -20.179 255 0 0
9.499037 25.543636 -20.381 255 0 0
9.499037 25.543636 -20.583 255 0 0
9.499037 25.543636 -20.785 255 0 0
9.61811 25.862303 -20.976 255 0 0
9.61811 25.862303 -21.178 255 0 0
9.736305 26.180244 -21.369 255 0 0
9.736305 26.180244 -21.57 255 0 0
9.736305 26.180244 -21.772 255 0 0
9.855378 26.498913 -21.962 255 0 0
9.855378 26.498913 -22.164 255 0 0
9.973574 26.816854 -22.354 255 0 0
9.973574 26.816854 -22.555 255 0 0
10.090892 27.13407 -22.745 255 0 0
10.090892 27.13407 -22.947 255 0 0
10.090892 27.13407 -23.148 255 0 0
10.090892 27.13407 -23.349 255 0 0
10.090892 27.13407 -23.551 255 0 0
10.090892 27.13407 -23.752 255 0 0
10.090892 27.13407 -23.953 255 0 0
10.090892 27.13407 -24.154 255 0 0
10.090892 27.13407 -24.356 255 0 0
10.090892 27.13407 -24.557 255 0 0
10.090892 27.13407 -24.758 255 0 0
10.090892 27.13407 -24.96 255 0 0
10.090892 27.13407 -25.161 255 0 0
10.090892 27.13407 -25.362 255 0 0
10.090892 27.13407 -25.564 255 0 0
10.090892 27.13407 -25.765 255 0 0
10.090892 27.13407 -25.966 255 0 0
10.090892 27.13407 -26.167 255 0 0
10.090892 27.13407 -26.369 255 0 0
10.090892 27.13407 -26.57 255 0 0
10.090892 27.13407 -26.771 255 0 0
10.090892 27.13407 -26.973 255 0 0
10.090892 27.13407 -27.174 255 0 0
10.090892 27.13407 -27.375 255 0 0
10.090892 27.13407 -27.576 255 0 0
10.090892 27.13407 -27.778 255 0 0
10.090892 27.13407 -27.979 255 0 0
10.090892 27.13407 -28.18 255 0 0
10.090892 27.13407 -28.382 255 0 0
10.090892 27.13407 -28.583 255 0 0
10.090892 27.13407 -28.784 255 0 0
10.090892 27.13407 -28.985 255 0 0
10.090892 27.13407 -29.187 255 0 0
10.090892 27.13407 -29.388 255 0 0
10.090892 27.13407 -29.589 255 0 0
10.090892 27.13407 -29.791 255 0 0
10.090892 27.13407 -29.992 255 0 0
10.090892 27.13407 -30.193 255 0 0
10.090892 27.13407 -30.394 255 0 0
10.090892 27.13407 -30.596 255 0 0
10.090892 27.13407 -30.797 255 0 0
10.090892 27.13407 -30.998 255 0 0
10.090892 27.13407 -31.2 255 0 0
10.090892 27.13407 -31.401 255 0 0
10.090892 27.13407 -31.602 255 0 0
10.090892 27.13407 -31.803 255 0 0
10.090892 27.13407 -32.005 255 0 0
10.090892 27.13407 -32.206 255 0 0
10.090892 27.13407 -32.407 255 0 0
10.090892 27.13407 -32.609 255 0 0
10.090892 27.13407 -32.81 255 0 0
10.090892 27.13407 -33.011 255 0 0
10.090892 27.13407 -33.212 255 0 0
10.090892 27.13407 -33.414 255 0 0
10.090892 27.13407 -33.615 255 0 0
10.090892 27.13407 -33.816 255 0 0
10.090892 27.13407 -34.018 255 0 0
10.090892 27.13407 -34.219 255 0 0
10.090892 27.13407 -34.42 255 0 0
10.090892 27.13407 -34.621 255 0 0
10.090892 27.13407 -34.823 255 0 0
10.090892 27.13407 -35.024 255 0 0
10.090892 27.13407 -35.225 255 0 0
10.090892 27.13407 -35.427 255 0 0
10.090892 27.13407 -35.628 255 0 0
10.090892 27.13407 -35.829 255 0 0
10.090892 27.13407 -36.03 255 0 0
10.090892 27.13407 -36.232 255 0 0
10.090892 27.13407 -36.433 255 0 0
10.090892 27.13407 -36.634 255 0 0
10.209087 27.452011 -36.817 255 0 0
10.209087 27.452011 -37.018 255 0 0
10.209087 27.452011 -37.22 255 0 0
10.090892 27.13407 -37.439 255 0 0
10.090892 27.13407 -37.641 255 0 0
10.090892 27.13407 -37.842 255 0 0
10.090892 27.13407 -38.043 255 0 0
10.090892 27.13407 -38.245 255 0 0
10.090892 27.13407 -38.446 255 0 0
10.090892 27.13407 -38.647 255 0 0
10.090892 27.13407 -38.848 255 0 0
10.090892 27.13407 -39.05 255 0 0
10.090892 27.13407 -39.251 255 0 0
10.090892 27.13407 -39.452 255 0 0
10.090892 27.13407 -39.654 255 0 0
10.090892 27.13407 -39.855 255 0 0
10.090892 27.13407 -40.056 255 0 0
10.090892 27.13407 -40.257 255 0 0
10.090892 27.13407 -40.459 255 0 0
10.090892 27.13407 -40.66 255 0 0
10.090892 27.13407 -40.861 255 0 0
10.090892 27.13407 -41.063 255 0 0
10.090892 27.13407 -41.264 255 0 0
10.090892 27.13407 -41.465 255 0 0
10.090892 27.13407 -41.666 255 0 0
10.090892 27.13407 -41.868 255 0 0
10.090892 27.13407 -42.069 255 0 0
10.090892 27.13407 -42.27 255 0 0
10.090892 27.13407 -42.472 255 0 0
10.090892 27.13407 -42.673 255 0 0
10.090892 27.13407 -42.874 255 0 0
10.090892 27.13407 -43.076 255 0 0
10.090892 27.13407 -43.277 255 0 0
10.090892 27.13407 -43.478 255 0 0
10.445175 28.08469 -43.614 255 0 0
10.090892 27.13407 -43.881 255 0 0
10.090892 27.13407 -44.082 255 0 0
10.090892 27.13407 -44.283 255 0 0
10.445175 28.08469 -44.418 255 0 0
10.445175 28.08469 -44.619 255 0 0
10.445175 28.08469 -44.82 255 0 0
10.090892 27.13407 -45.088 255 0 0
10.209087 27.452011 -45.267 255 0 0
10.209087 27.452011 -45.468 255 0 0
10.209087 27.452011 -45.669 255 0 0
10.209087 27.452011 -45.871 255 0 0
10.209087 27.452011 -46.072 255 0 0
10.209087 27.452011 -46.273 255 0 0
10.209087 27.452011 -46.474 255 0 0
10.209087 27.452011 -46.675 255 0 0
10.209087 27.452011 -46.877 255 0 0
10.209087 27.452011 -47.078 255 0 0
10.090892 27.13407 -47.303 255 0 0
10.090892 27.13407 -47.504 255 0 0
10.090892 27.13407 -47.705 255 0 0
10.090892 27.13407 -47.906 255 0 0
10.090892 27.13407 -48.108 255 0 0
10.090892 27.13407 -48.309 255 0 0
10.090892 27.13407 -48.51 255 0 0
10.090892 27.13407 -48.712 255 0 0
10.209087 27.452011 -48.888 255 0 0
10.209087 27.452011 -49.09 255 0 0
10.209087 27.452011 -49.291 255 0 0
10.209087 27.452011 -49.492 255 0 0
10.090892 27.13407 -49.718 255 0 0
10.090892 27.13407 -49.919 255 0 0
10.090892 27.13407 -50.121 255 0 0
10.090892 27.13407 -50.322 255 0 0
10.090892 27.13407 -50.523 255 0 0
10.090892 27.13407 -50.724 255 0 0
10.090892 27.13407 -50.926 255 0 0
10.090892 27.13407 -51.127 255 0 0
10.090892 27.13407 -51.328 255 0 0
10.090892 27.13407 -51.53 255 0 0
10.090892 27.13407 -51.731 255 0 0
9.973574 26.816854 -51.958 255 0 0
9.973574 26.816854 -52.16 255 0 0
9.855378 26.498913 -52.387 255 0 0
9.855378 26.498913 -52.589 255 0 0
9.855378 26.498913 -52.79 255 0 0
9.736305 26.180244 -53.018 255 0 0
9.61811 25.862303 -53.246 255 0 0
9.61811 25.862303 -53.448 255 0 0
9.61811 25.862303 -53.65 255 0 0
9.499037 25.543636 -53.878 255 0 0
9.38069 25.22409 -54.107 255 0 0
9.38069 25.22409 -54.309 255 0 0
9.262342 24.904547 -54.539 255 0 0
9.262342 24.904547 -54.741 255 0 0
9.262342 24.904547 -54.943 255 0 0
9.262342 24.904547 -55.145 255 0 0
9.262342 24.904547 -55.347 255 0 0
9.262342 24.904547 -55.549 255 0 0
9.14327 24.585878 -56.183 255 0 0
9.262342 24.904547 -56.357 255 0 0
9.14327 24.585878 -56.587 255 0 0
9.14327 24.585878 -56.789 255 0 0
9.14327 24.585878 -56.991 255 0 0
9.14327 24.585878 -57.193 255 0 0
9.262342 24.904547 -57.366 255 0 0
9.262342 24.904547 -57.568 255 0 0
9.38069 25.22409 -57.741 255 0 0
9.38069 25.22409 -57.943 255 0 0
9.38069 25.22409 -58.145 255 0 0
9.38069 25.22409 -58.347 255 0 0
9.38069 25.22409 -58.549 255 0 0
9.38069 25.22409 -58.751 255 0 0
9.38069 25.22409 -58.953 255 0 0
9.38069 25.22409 -59.155 255 0 0
9.38069 25.22409 -59.357 255 0 0
9.38069 25.22409 -59.559 255 0 0
9.38069 25.22409 -59.76 255 0 0
9.262342 24.904547 -59.992 255 0 0
9.38069 25.22409 -60.164 255 0 0
9.38069 25.22409 -60.366 255 0 0
9.38069 25.22409 -60.568 255 0 0
9.499037 25.543636 -60.739 255 0 0
9.38069 25.22409 -60.972 255 0 0
9.38069 25.22409 -61.174 255 0 0
9.38069 25.22409 -61.376 255 0 0
9.38069 25.22409 -61.577 255 0 0
9.38069 25.22409 -61.779 255 0 0
9.262342 24.904547 -62.012 255 0 0
9.38069 25.22409 -62.183 255 0 0
9.38069 25.22409 -62.385 255 0 0
9.262342 24.904547 -62.618 255 0 0
9.38069 25.22409 -62.789 255 0 0
9.38069 25.22409 -62.991 255 0 0
9.38069 25.22409 -63.193 255 0 0
9.38069 25.22409 -63.394 255 0 0
9.38069 25.22409 -63.596 255 0 0
9.38069 25.22409 -63.798 255 0 0
9.38069 25.22409 -64.0 255 0 0
9.38069 25.22409 -64.202 255 0 0
63.643578 171.1316 -63.953 255 0 0
63.501842 170.7528 -64.158 255 0 0
63.431335 170.56297 -64.339 255 0 0
63.361557 170.37227 -64.52 255 0 0
63.361557 170.37227 -64.676 255 0 0
63.361557 170.37227 -64.831 255 0 0
63.219666 169.99187 -65.038 255 0 0
63.219666 169.99187 -65.194 255 0 0
63.219666 169.99187 -65.35 255 0 0
63.219666 169.99187 -65.505 255 0 0
63.219666 169.99187 -65.661 255 0 0
63.219666 169.99187 -65.817 255 0 0
63.219666 169.99187 -65.973 255 0 0
63.219666 169.99187 -66.129 255 0 0
63.219666 169.99187 -66.285 255 0 0
63.219666 169.99187 -66.441 255 0 0
63.219666 169.99187 -66.597 255 0 0
63.148285 169.80132 -66.779 255 0 0
63.148285 169.80132 -66.935 255 0 0
63.148285 169.80132 -67.091 255 0 0
63.148285 169.80132 -67.247 255 0 0
63.219666 169.99187 -67.377 255 0 0
63.219666 169.99187 -67.533 255 0 0
63.219666 169.99187 -67.689 255 0 0
63.219666 169.99187 -67.845 255 0 0
63.219666 169.99187 -68.001 255 0 0
63.219666 169.99187 -68.157 255 0 0
63.219666 169.99187 -68.313 255 0 0
63.219666 169.99187 -68.469 255 0 0
63.219666 169.99187 -68.625 255 0 0
63.219666 169.99187 -68.781 255 0 0
63.219666 169.99187 -68.937 255 0 0
7.9299736 23.563908 2.228 255 0 0
7.9299736 23.563908 2.025 255 0 0
8.039933 23.88852 1.822 255 0 0
8.039933 23.88852 1.619 255 0 0
8.039933 23.88852 1.417 255 0 0
8.039933 23.88852 1.214 255 0 0
7.9299736 23.563908 1.013 255 0 0
7.9299736 23.563908 0.81 255 0 0
8.039933 23.88852 0.607 255 0 0
8.039933 23.88852 0.405 255 0 0
8.148286 24.21323 0.202 255 0 0
8.257391 24.537086 -0.202 255 0 0
8.366497 24.860945 -0.404 255 0 0
8.475501 25.183195 -0.606 255 0 0
8.475501 25.183195 -0.808 255 0 0
8.583753 25.5063 -1.009 255 0 0
8.583753 25.5063 -1.211 255 0 0
8.583753 25.5063 -1.413 255 0 0
8.583753 25.5063 -1.615 255 0 0
8.583753 25.5063 -1.817 255 0 0
8.583753 25.5063 -2.019 255 0 0
8.583753 25.5063 -2.221 255 0 0
8.583753 25.5063 -2.423 255 0 0
8.583753 25.5063 -2.625 255 0 0
8.475501 25.183195 -2.828 255 0 0
8.475501 25.183195 -3.03 255 0 0
8.475501 25.183195 -3.232 255 0 0
8.475501 25.183195 -3.434 255 0 0
8.475501 25.183195 -3.636 255 0 0
8.475501 25.183195 -3.838 255 0 0
8.475501 25.183195 -4.04 255 0 0
8.583753 25.5063 -4.24 255 0 0
8.475501 25.183195 -4.444 255 0 0
8.583753 25.5063 -4.644 255 0 0
8.583753 25.5063 -4.845 255 0 0
8.583753 25.5063 -5.047 255 0 0
8.583753 25.5063 -5.249 255 0 0
8.583753 25.5063 -5.451 255 0 0
8.583753 25.5063 -5.653 255 0 0
8.583753 25.5063 -5.855 255 0 0
8.583753 25.5063 -6.057 255 0 0
8.583753 25.5063 -6.259 255 0 0
8.583753 25.5063 -6.461 255 0 0
8.583753 25.5063 -6.662 255 0 0
8.583753 25.5063 -6.864 255 0 0
8.583753 25.5063 -7.066 255 0 0
8.583753 25.5063 -7.268 255 0 0
8.475501 25.183195 -7.474 255 0 0
8.583753 25.5063 -7.672 255 0 0
8.475501 25.183195 -7.878 255 0 0
8.475501 25.183195 -8.08 255 0 0
8.475501 25.183195 -8.282 255 0 0
8.475501 25.183195 -8.484 255 0 0
8.475501 25.183195 -8.686 255 0 0
8.475501 25.183195 -8.888 255 0 0
8.475501 25.183195 -9.09 255 0 0
8.475501 25.183195 -9.292 255 0 0
8.583753 25.5063 -9.489 255 0 0
8.583753 25.5063 -9.691 255 0 0
8.583753 25.5063 -9.893 255 0 0
8.583753 25.5063 -10.095 255 0 0
8.583753 25.5063 -10.297 255 0 0
8.583753 25.5063 -10.498 255 0 0
8.583753 25.5063 -10.7 255 0 0
8.583753 25.5063 -10.902 255 0 0
8.583753 25.5063 -11.104 255 0 0
8.583753 25.5063 -11.306 255 0 0
8.583753 25.5063 -11.508 255 0 0
8.583753 25.5063 -11.71 255 0 0
8.583753 25.5063 -11.912 255 0 0
8.583753 25.5063 -12.114 255 0 0
8.583753 25.5063 -12.315 255 0 0
8.583753 25.5063 -12.517 255 0 0
8.583753 25.5063 -12.719 255 0 0
8.583753 25.5063 -12.921 255 0 0
8.583753 25.5063 -13.123 255 0 0
8.583753 25.5063 -13.325 255 0 0
8.583753 25.5063 -13.527 255 0 0
8.475501 25.183195 -13.736 255 0 0
8.475501 25.183195 -13.938 255 0 0
8.583753 25.5063 -14.133 255 0 0
8.583753 25.5063 -14.334 255 0 0
8.583753 25.5063 -14.536 255 0 0
8.583753 25.5063 -14.738 255 0 0
8.475501 25.183195 -14.948 255 0 0
8.583753 25.5063 -15.142 255 0 0
8.475501 25.183195 -15.352 255 0 0
8.583753 25.5063 -15.546 255 0 0
8.583753 25.5063 -15.748 255 0 0
8.583753 25.5063 -15.95 255 0 0
8.583753 25.5063 -16.151 255 0 0
8.583753 25.5063 -16.353 255 0 0
8.583753 25.5063 -16.555 255 0 0
8.583753 25.5063 -16.757 255 0 0
8.583753 25.5063 -16.959 255 0 0
8.583753 25.5063 -17.161 255 0 0
8.583753 25.5063 -17.363 255 0 0
8.692004 25.829403 -17.556 255 0 0
8.692004 25.829403 -17.758 255 0 0
8.692004 25.829403 -17.959 255 0 0
8.692004 25.829403 -18.161 255 0 0
8.692004 25.829403 -18.363 255 0 0
8.692004 25.829403 -18.565 255 0 0
8.583753 25.5063 -18.776 255 0 0
8.583753 25.5063 -18.978 255 0 0
8.583753 25.5063 -19.18 255 0 0
8.583753 25.5063 -19.382 255 0 0
8.692004 25.829403 -19.574 255 0 0
8.692004 25.829403 -19.776 255 0 0
8.692004 25.829403 -19.977 255 0 0
8.692004 25.829403 -20.179 255 0 0
8.692004 25.829403 -20.381 255 0 0
8.692004 25.829403 -20.583 255 0 0
8.801009 26.151653 -20.774 255 0 0
8.801009 26.151653 -20.976 255 0 0
8.90916 26.473152 -21.167 255 0 0
8.90916 26.473152 -21.369 255 0 0
9.018164 26.795403 -21.559 255 0 0
9.018164 26.795403 -21.761 255 0 0
9.018164 26.795403 -21.962 255 0 0
9.126314 27.1169 -22.153 255 0 0
9.126314 27.1169 -22.354 255 0 0
9.233611 27.437643 -22.544 255 0 0
9.233611 27.437643 -22.745 255 0 0
9.233611 27.437643 -22.947 255 0 0
9.233611 27.437643 -23.148 255 0 0
9.341762 27.759142 -23.338 255 0 0
9.341762 27.759142 -23.539 255 0 0
9.341762 27.759142 -23.74 255 0 0
9.341762 27.759142 -23.941 255 0 0
9.341762 27.759142 -24.142 255 0 0
9.341762 27.759142 -24.344 255 0 0
9.341762 27.759142 -24.545 255 0 0
9.341762 27.759142 -24.746 255 0 0
9.341762 27.759142 -24.947 255 0 0
9.341762 27.759142 -25.148 255 0 0
9.233611 27.437643 -25.362 255 0 0
9.341762 27.759142 -25.551 255 0 0
9.233611 27.437643 -25.765 255 0 0
9.233611 27.437643 -25.966 255 0 0
9.341762 27.759142 -26.154 255 0 0
9.341762 27.759142 -26.355 255 0 0
9.233611 27.437643 -26.57 255 0 0
9.341762 27.759142 -26.758 255 0 0
9.341762 27.759142 -26.959 255 0 0
9.341762 27.759142 -27.16 255 0 0
9.341762 27.759142 -27.361 255 0 0
9.341762 27.759142 -27.563 255 0 0
9.341762 27.759142 -27.764 255 0 0
9.341762 27.759142 -27.965 255 0 0
9.341762 27.759142 -28.166 255 0 0
9.341762 27.759142 -28.367 255 0 0
9.341762 27.759142 -28.569 255 0 0
9.341762 27.759142 -28.77 255 0 0
9.341762 27.759142 -28.971 255 0 0
9.341762 27.759142 -29.172 255 0 0
9.341762 27.759142 -29.373 255 0 0
9.341762 27.759142 -29.574 255 0 0
9.341762 27.759142 -29.776 255 0 0
9.341762 27.759142 -29.977 255 0 0
9.341762 27.759142 -30.178 255 0 0
9.341762 27.759142 -30.379 255 0 0
9.233611 27.437643 -30.596 255 0 0
9.341762 27.759142 -30.782 255 0 0
9.341762 27.759142 -30.983 255 0 0
9.341762 27.759142 -31.184 255 0 0
9.341762 27.759142 -31.385 255 0 0
9.44981 28.079031 -31.571 255 0 0
9.341762 27.759142 -31.788 255 0 0
9.44981 28.079031 -31.973 255 0 0
9.341762 27.759142 -32.19 255 0 0
9.44981 28.079031 -32.375 255 0 0
9.44981 28.079031 -32.576 255 0 0
9.44981 28.079031 -32.777 255 0 0
9.44981 28.079031 -32.978 255 0 0
9.44981 28.079031 -33.179 255 0 0
9.44981 28.079031 -33.38 255 0 0
9.44981 28.079031 -33.581 255 0 0
9.44981 28.079031 -33.782 255 0 0
9.44981 28.079031 -33.984 255 0 0
9.44981 28.079031 -34.185 255 0 0
9.44981 28.079031 -34.386 255 0 0
9.44981 28.079031 -34.587 255 0 0
9.44981 28.079031 -34.788 255 0 0
9.44981 28.079031 -34.989 255 0 0
9.44981 28.079031 -35.19 255 0 0
9.44981 28.079031 -35.391 255 0 0
9.44981 28.079031 -35.592 255 0 0
9.44981 28.079031 -35.793 255 0 0
9.44981 28.079031 -35.994 255 0 0
9.44981 28.079031 -36.196 255 0 0
9.341762 27.759142 -36.415 255 0 0
9.341762 27.759142 -36.616 255 0 0
9.341762 27.759142 -36.817 255 0 0
9.341762 27.759142 -37.018 255 0 0
9.341762 27.759142 -37.22 255 0 0
9.233611 27.437643 -37.439 255 0 0
9.341762 27.759142 -37.622 255 0 0
9.341762 27.759142 -37.823 255 0 0
9.341762 27.759142 -38.024 255 0 0
9.341762 27.759142 -38.225 255 0 0
9.341762 27.759142 -38.427 255 0 0
9.341762 27.759142 -38.628 255 0 0
9.341762 27.759142 -38.829 255 0 0
9.341762 27.759142 -39.03 255 0 0
9.341762 27.759142 -39.231 255 0 0
9.341762 27.759142 -39.433 255 0 0
9.341762 27.759142 -39.634 255 0 0
9.341762 27.759142 -39.835 255 0 0
9.341762 27.759142 -40.036 255 0 0
9.341762 27.759142 -40.237 255 0 0
9.341762 27.759142 -40.439 255 0 0
9.341762 27.759142 -40.64 255 0 0
9.341762 27.759142 -40.841 255 0 0
9.341762 27.759142 -41.042 255 0 0
9.341762 27.759142 -41.243 255 0 0
9.341762 27.759142 -41.444 255 0 0
9.341762 27.759142 -41.646 255 0 0
9.341762 27.759142 -41.847 255 0 0
9.341762 27.759142 -42.048 255 0 0
9.341762 27.759142 -42.249 255 0 0
9.44981 28.079031 -42.429 255 0 0
9.44981 28.079031 -42.63 255 0 0
9.44981 28.079031 -42.831 255 0 0
9.44981 28.079031 -43.032 255 0 0
