ply
format ascii 1.0
element vertex 1214
property float x
property float y
property float z
property uchar red
property uchar green
property uchar blue
end_header
21.234303 12.259448 -48.625 146 139 130
21.234303 12.259448 -48.828 144 139 129
21.234303 12.259448 -49.03 144 139 130
21.234303 12.259448 -49.233 144 139 130
21.234303 12.259448 -49.436 144 139 129
21.234303 12.259448 -49.638 145 138 129
21.234303 12.259448 -49.841 146 137 129
21.234303 12.259448 -50.043 146 137 126
21.234303 12.259448 -50.246 146 136 124
21.234303 12.259448 -50.449 145 134 122
21.234303 12.259448 -50.651 143 131 119
21.234303 12.259448 -50.854 141 127 115
21.234303 12.259448 -51.056 138 122 110
21.234303 12.259448 -51.259 133 115 105
21.234303 12.259448 -51.462 127 114 110
20.937153 12.088673 -51.69 133 123 113
20.937153 12.088673 -51.893 139 136 129
20.640001 11.916758 -52.122 148 148 142
20.640001 11.916758 -52.325 157 157 155
20.640001 11.916758 -52.528 164 164 161
21.531454 12.431363 -52.853 172 172 172
21.531454 12.431363 -53.056 174 174 172
20.341713 11.744843 -53.366 172 171 167
20.341713 11.744843 -53.569 169 169 162
20.341713 11.744843 -53.771 165 164 160
20.341713 11.744843 -53.974 161 158 152
20.341713 11.744843 -54.177 154 151 145
20.341713 11.744843 -54.38 152 144 138
20.341713 11.744843 -54.583 147 142 137
20.341713 11.744843 -54.786 150 140 133
20.341713 11.744843 -54.989 150 142 134
20.341713 11.744843 -55.192 150 142 134
20.341713 11.744843 -55.395 151 144 133
20.341713 11.744843 -55.598 151 142 132
20.341713 11.744843 -55.801 150 141 131
20.341713 11.744843 -56.003 149 140 130
20.341713 11.744843 -56.206 147 138 128
20.341713 11.744843 -56.409 146 139 128
20.341713 11.744843 -56.612 145 138 127
20.341713 11.744843 -56.815 145 138 127
20.341713 11.744843 -57.018 143 139 127
20.341713 11.744843 -57.221 143 137 128
20.341713 11.744843 -57.424 143 137 127
20.341713 11.744843 -57.627 141 135 127
20.341713 11.744843 -57.83 141 133 125
20.341713 11.744843 -58.033 140 132 124
20.341713 11.744843 -58.236 141 133 125
20.341713 11.744843 -58.438 142 134 126
20.341713 11.744843 -58.641 143 136 127
20.341713 11.744843 -58.844 143 138 126
20.341713 11.744843 -59.047 144 139 127
20.341713 11.744843 -59.25 146 140 131
20.341713 11.744843 -59.453 146 141 133
20.341713 11.744843 -59.656 145 140 131
20.341713 11.744843 -59.859 145 139 130
20.341713 11.744843 -60.062 145 137 129
20.341713 11.744843 -60.265 144 136 128
20.341713 11.744843 -60.468 141 133 124
20.341713 11.744843 -60.67 138 129 118
20.341713 11.744843 -60.873 135 125 113
20.341713 11.744843 -61.076 132 125 118
20.341713 11.744843 -61.279 135 130 125
20.341713 11.744843 -61.482 140 136 134
20.341713 11.744843 -61.685 145 141 140
20.341713 11.744843 -61.888 146 144 142
20.341713 11.744843 -62.091 148 144 141
20.341713 11.744843 -62.497 143 138 133
20.341713 11.744843 -62.7 136 131 125
20.341713 11.744843 -62.902 126 118 112
20.341713 11.744843 -63.105 113 102 92
20.341713 11.744843 -63.511 74 65 64
20.341713 11.744843 -63.714 64 54 47
18.498022 11.468551 0.814 150 150 148
18.498022 11.468551 0.61 192 188 184
18.498022 11.468551 0.407 223 218 211
18.498022 11.468551 0.203 236 231 225
18.790728 11.6508875 -0.203 234 228 222
18.790728 11.6508875 -0.407 225 220 214
19.084572 11.833261 -0.61 212 206 198
20.547106 12.740359 -0.811 208 204 198
20.255503 12.5591955 -1.014 200 196 193
20.547106 12.740359 -1.216 200 196 192
20.547106 12.740359 -1.419 199 189 182
20.547106 12.740359 -1.622 193 183 176
20.838747 12.920384 -1.823 205 203 201
20.838747 12.920384 -2.026 189 188 185
21.13035 13.101548 -2.228 125 124 123
21.13035 13.101548 -2.43 103 100 95
21.13035 13.101548 -2.633 140 130 120
22.293459 13.822681 -2.829 143 129 116
22.293459 13.822681 -3.031 142 126 116
22.293459 13.822681 -3.234 141 125 115
22.293459 13.822681 -3.436 131 119 113
22.293459 13.822681 -3.638 136 125 115
22.293459 13.822681 -3.84 138 128 123
22.293459 13.822681 -4.042 138 130 122
22.293459 13.822681 -4.244 137 129 121
22.293459 13.822681 -4.446 137 129 121
22.293459 13.822681 -4.648 137 129 121
22.293459 13.822681 -4.85 136 128 120
22.293459 13.822681 -5.052 136 128 120
22.293459 13.822681 -5.254 133 128 121
21.13035 13.101548 -5.468 136 127 121
21.13035 13.101548 -5.67 133 125 120
21.13035 13.101548 -5.873 132 124 120
22.293459 13.822681 -6.063 127 122 117
22.293459 13.822681 -6.265 129 124 119
22.293459 13.822681 -6.467 130 124 119
22.293459 13.822681 -6.669 131 123 117
21.13035 13.101548 -6.885 135 127 119
21.13035 13.101548 -7.088 136 129 121
21.13035 13.101548 -7.29 137 132 124
21.13035 13.101548 -7.493 137 132 124
21.13035 13.101548 -7.695 136 130 123
21.13035 13.101548 -7.898 137 129 120
21.13035 13.101548 -8.1 138 129 120
21.13035 13.101548 -8.303 139 128 120
21.13035 13.101548 -8.505 140 128 119
21.13035 13.101548 -8.708 139 128 121
21.13035 13.101548 -8.91 139 128 122
21.13035 13.101548 -9.113 140 128 124
21.13035 13.101548 -9.315 139 127 124
21.13035 13.101548 -9.518 139 128 124
21.13035 13.101548 -9.72 140 130 125
21.13035 13.101548 -9.923 142 132 126
21.13035 13.101548 -10.125 142 133 127
21.13035 13.101548 -10.328 143 134 127
21.13035 13.101548 -10.53 143 133 126
21.13035 13.101548 -10.733 142 132 125
21.13035 13.101548 -10.935 143 132 125
21.13035 13.101548 -11.138 145 133 126
21.13035 13.101548 -11.34 147 134 124
21.13035 13.101548 -11.543 145 134 122
21.13035 13.101548 -11.745 142 132 123
21.13035 13.101548 -11.948 138 130 125
21.13035 13.101548 -12.15 137 129 125
21.13035 13.101548 -12.353 137 129 123
21.13035 13.101548 -12.555 137 129 123
21.13035 13.101548 -12.758 136 128 120
21.13035 13.101548 -12.96 135 127 119
21.13035 13.101548 -13.163 133 128 123
21.13035 13.101548 -13.365 136 129 121
21.13035 13.101548 -13.568 137 129 122
21.13035 13.101548 -13.77 134 129 122
21.13035 13.101548 -13.973 133 128 121
21.13035 13.101548 -14.175 132 124 116
21.13035 13.101548 -14.378 129 124 117
21.13035 13.101548 -14.58 130 122 116
21.13035 13.101548 -14.783 129 124 117
20.838747 12.920384 -16.006 130 123 118
20.838747 12.920384 -16.208 130 122 116
20.838747 12.920384 -16.411 130 122 116
20.838747 12.920384 -16.614 130 123 117
20.838747 12.920384 -16.816 130 123 117
20.838747 12.920384 -17.019 130 123 118
20.838747 12.920384 -17.221 130 122 118
20.838747 12.920384 -17.424 131 123 117
20.838747 12.920384 -17.627 131 123 118
20.838747 12.920384 -17.829 131 123 117
20.838747 12.920384 -18.032 131 123 117
20.838747 12.920384 -18.234 129 121 116
20.838747 12.920384 -18.437 127 119 114
20.838747 12.920384 -18.64 125 117 113
20.838747 12.920384 -18.842 127 120 115
20.838747 12.920384 -19.045 132 124 119
20.838747 12.920384 -19.247 136 128 122
20.838747 12.920384 -19.45 139 131 125
20.838747 12.920384 -19.653 140 133 127
21.712456 13.462702 -21.241 161 164 163
21.712456 13.462702 -21.444 163 166 165
21.712456 13.462702 -21.646 161 163 162
21.712456 13.462702 -21.848 160 161 160
21.712456 13.462702 -22.051 158 158 158
21.712456 13.462702 -22.253 154 155 155
20.838747 12.920384 -22.489 152 153 153
20.838747 12.920384 -22.692 152 152 152
21.13035 13.101548 -23.085 145 141 139
21.13035 13.101548 -23.288 97 91 89
21.13035 13.101548 -23.49 113 103 94
22.293459 13.822681 -23.645 122 107 96
22.293459 13.822681 -23.847 125 112 97
22.293459 13.822681 -24.049 127 114 100
22.293459 13.822681 -24.252 128 113 100
22.293459 13.822681 -24.454 128 114 103
22.293459 13.822681 -24.656 129 116 102
22.293459 13.822681 -24.858 128 117 105
22.293459 13.822681 -25.06 131 120 110
22.293459 13.822681 -25.262 130 121 111
22.293459 13.822681 -25.464 133 122 112
22.293459 13.822681 -25.666 134 123 113
22.293459 13.822681 -25.868 134 123 113
22.293459 13.822681 -26.07 134 123 113
22.293459 13.822681 -26.272 133 124 114
22.293459 13.822681 -26.475 133 124 114
22.293459 13.822681 -26.677 133 124 112
22.293459 13.822681 -26.879 133 124 114
22.293459 13.822681 -27.081 132 125 114
22.293459 13.822681 -27.283 132 125 114
22.293459 13.822681 -27.485 132 124 114
22.293459 13.822681 -27.687 133 124 114
21.13035 13.101548 -29.565 129 122 114
21.13035 13.101548 -29.768 128 123 115
21.13035 13.101548 -29.97 130 123 117
21.13035 13.101548 -30.173 133 125 119
21.13035 13.101548 -30.375 135 127 120
21.13035 13.101548 -30.578 135 127 119
21.13035 13.101548 -30.78 137 127 118
21.13035 13.101548 -30.983 138 127 117
21.13035 13.101548 -31.185 137 128 118
21.13035 13.101548 -31.388 137 127 119
21.13035 13.101548 -31.59 137 128 121
21.13035 13.101548 -31.793 136 128 120
21.13035 13.101548 -31.995 136 128 121
21.13035 13.101548 -32.198 136 128 122
21.13035 13.101548 -32.4 135 127 122
21.13035 13.101548 -32.603 133 125 121
21.13035 13.101548 -32.805 132 124 120
21.13035 13.101548 -33.008 131 123 119
21.13035 13.101548 -33.21 130 122 118
21.13035 13.101548 -33.413 130 122 118
21.13035 13.101548 -33.615 132 124 120
21.13035 13.101548 -33.818 133 125 121
21.13035 13.101548 -34.02 135 127 121
21.13035 13.101548 -34.223 136 128 124
21.13035 13.101548 -34.425 137 129 123
21.13035 13.101548 -34.628 137 129 123
21.13035 13.101548 -34.83 136 131 126
21.13035 13.101548 -35.033 137 132 127
21.13035 13.101548 -35.235 139 134 129
21.13035 13.101548 -35.438 140 135 130
21.13035 13.101548 -35.64 140 135 130
21.13035 13.101548 -35.843 141 136 131
21.13035 13.101548 -36.046 143 135 131
21.13035 13.101548 -36.248 143 135 129
21.13035 13.101548 -36.451 143 135 131
21.13035 13.101548 -36.653 141 134 130
21.13035 13.101548 -36.856 140 134 129
21.13035 13.101548 -37.058 140 132 128
20.838747 12.920384 -38.09 143 138 135
20.838747 12.920384 -38.495 145 138 136
20.838747 12.920384 -38.698 146 139 138
20.838747 12.920384 -38.9 146 140 139
20.838747 12.920384 -39.305 147 143 142
20.838747 12.920384 -39.508 147 144 141
20.838747 12.920384 -39.711 147 145 142
20.838747 12.920384 -39.913 146 145 142
20.838747 12.920384 -40.116 146 145 143
20.838747 12.920384 -40.318 147 146 144
20.838747 12.920384 -40.521 147 146 143
20.838747 12.920384 -40.724 147 146 143
20.838747 12.920384 -40.926 147 146 142
20.838747 12.920384 -41.129 148 145 142
20.838747 12.920384 -41.331 148 146 142
20.838747 12.920384 -41.534 148 146 141
20.838747 12.920384 -41.737 148 145 139
20.838747 12.920384 -41.939 148 145 139
21.712456 13.462702 -43.09 148 142 140
21.712456 13.462702 -43.292 149 143 141
21.712456 13.462702 -43.899 148 142 140
21.712456 13.462702 -44.101 147 141 139
21.712456 13.462702 -44.304 145 141 140
21.712456 13.462702 -44.506 143 139 140
21.712456 13.462702 -44.708 139 138 136
21.712456 13.462702 -44.91 142 136 134
21.712456 13.462702 -45.113 142 136 136
21.712456 13.462702 -45.315 142 136 134
21.712456 13.462702 -45.517 143 138 133
21.712456 13.462702 -45.72 143 137 135
21.712456 13.462702 -45.922 145 137 133
21.712456 13.462702 -46.124 142 136 136
21.712456 13.462702 -46.327 145 137 133
21.712456 13.462702 -46.529 143 137 135
21.712456 13.462702 -46.731 144 139 133
21.712456 13.462702 -46.933 144 139 131
21.712456 13.462702 -47.136 144 138 130
21.712456 13.462702 -47.338 145 137 131
21.712456 13.462702 -47.54 145 137 131
21.712456 13.462702 -47.743 144 138 130
21.712456 13.462702 -47.945 145 137 131
21.712456 13.462702 -48.147 145 137 131
21.712456 13.462702 -48.35 145 137 131
21.712456 13.462702 -48.552 145 137 131
21.712456 13.462702 -48.754 145 138 132
21.712456 13.462702 -48.956 145 139 132
21.712456 13.462702 -49.159 146 138 132
20.547106 12.740359 -49.46 144 139 131
20.547106 12.740359 -49.866 143 135 129
20.547106 12.740359 -50.069 142 134 127
20.547106 12.740359 -50.271 141 132 125
20.547106 12.740359 -50.474 142 130 123
20.547106 12.740359 -50.677 141 129 122
20.547106 12.740359 -50.879 139 127 120
20.547106 12.740359 -51.082 134 123 117
20.547106 12.740359 -51.285 128 117 109
20.547106 12.740359 -51.488 109 102 97
20.255503 12.5591955 -51.716 119 116 112
19.96276 12.377996 -51.945 139 137 137
19.96276 12.377996 -52.148 150 151 149
19.96276 12.377996 -52.351 159 160 158
19.96276 12.377996 -52.554 163 166 162
19.96276 12.377996 -52.757 166 170 165
19.96276 12.377996 -52.96 169 170 168
19.96276 12.377996 -53.163 168 169 167
19.96276 12.377996 -53.366 166 167 165
19.96276 12.377996 -53.569 165 165 162
19.96276 12.377996 -53.771 163 162 158
19.96276 12.377996 -54.38 150 144 133
19.671158 12.196833 -59.889 151 149 145
17.839552 11.852344 0.814 147 149 147
17.839552 11.852344 0.611 193 193 186
17.839552 11.852344 0.407 218 217 209
18.128658 12.043928 0.203 231 231 224
18.128658 12.043928 -0.203 233 230 220
19.564108 12.998934 -0.406 227 220 210
19.851013 13.1892395 -0.608 215 205 196
19.27834 12.808701 -0.812 203 196 185
19.27834 12.808701 -1.015 200 191 179
19.564108 12.998934 -1.217 195 187 176
19.851013 13.1892395 -1.42 185 177 166
20.136784 13.379473 -1.622 182 174 162
20.136784 13.379473 -1.824 190 186 179
20.136784 13.379473 -2.027 178 175 167
20.422625 13.56857 -2.229 123 122 121
20.422625 13.56857 -2.431 112 107 106
20.422625 13.56857 -2.634 138 129 123
20.708393 13.758803 -3.443 144 139 130
20.708393 13.758803 -3.848 142 137 130
20.708393 13.758803 -4.05 142 137 130
20.708393 13.758803 -4.253 142 137 130
20.708393 13.758803 -4.455 142 134 130
20.708393 13.758803 -4.658 141 133 129
20.708393 13.758803 -4.86 140 132 128
20.708393 13.758803 -5.063 139 132 126
20.708393 13.758803 -5.265 138 132 127
20.708393 13.758803 -5.468 140 133 125
20.708393 13.758803 -5.67 134 131 126
20.708393 13.758803 -5.873 134 130 127
20.708393 13.758803 -6.075 135 129 126
20.708393 13.758803 -6.278 135 129 125
20.708393 13.758803 -6.48 135 127 123
20.708393 13.758803 -6.683 134 126 122
20.708393 13.758803 -6.885 134 126 122
20.708393 13.758803 -7.088 134 127 123
20.708393 13.758803 -7.29 134 128 124
20.708393 13.758803 -7.493 136 128 123
20.708393 13.758803 -7.695 135 128 122
20.708393 13.758803 -8.91 134 126 119
20.422625 13.56857 -9.928 134 127 120
20.422625 13.56857 -10.13 136 128 122
20.422625 13.56857 -10.333 137 129 123
20.422625 13.56857 -10.535 135 128 122
20.422625 13.56857 -10.738 136 128 122
20.422625 13.56857 -10.941 137 128 123
20.422625 13.56857 -11.143 137 127 122
20.422625 13.56857 -11.346 137 125 120
20.422625 13.56857 -11.548 137 124 119
20.422625 13.56857 -11.751 137 125 121
20.422625 13.56857 -11.954 136 126 123
20.422625 13.56857 -12.156 135 127 123
20.422625 13.56857 -12.359 135 127 123
20.422625 13.56857 -12.561 134 126 121
20.422625 13.56857 -12.764 133 125 120
20.422625 13.56857 -12.967 133 125 120
20.422625 13.56857 -13.169 131 125 123
20.422625 13.56857 -13.372 134 129 125
20.422625 13.56857 -13.575 133 127 124
20.422625 13.56857 -13.777 130 125 120
21.278868 14.138063 -13.959 129 124 119
20.422625 13.56857 -14.182 131 125 121
20.422625 13.56857 -14.385 127 125 121
20.422625 13.56857 -14.588 131 123 122
20.422625 13.56857 -14.79 132 127 124
21.278868 14.138063 -14.97 127 123 120
21.278868 14.138063 -15.172 130 127 121
21.278868 14.138063 -15.375 133 130 124
21.278868 14.138063 -15.577 131 126 121
21.278868 14.138063 -15.779 129 123 117
21.278868 14.138063 -15.982 130 120 117
21.278868 14.138063 -16.184 132 120 115
21.278868 14.138063 -16.386 130 120 116
20.422625 13.56857 -16.614 138 126 119
20.422625 13.56857 -16.816 136 125 118
20.422625 13.56857 -17.019 135 125 117
20.422625 13.56857 -17.221 134 126 118
20.422625 13.56857 -17.424 134 126 118
20.422625 13.56857 -17.627 134 126 118
20.422625 13.56857 -17.829 134 127 120
20.422625 13.56857 -18.032 134 126 118
20.422625 13.56857 -18.234 133 125 117
20.136784 13.379473 -18.446 136 128 120
20.136784 13.379473 -18.649 135 127 120
20.136784 13.379473 -18.852 135 126 120
20.136784 13.379473 -19.054 136 126 121
20.136784 13.379473 -19.257 137 127 123
20.136784 13.379473 -19.46 140 129 124
20.136784 13.379473 -19.663 143 132 126
20.136784 13.379473 -19.865 144 136 132
20.136784 13.379473 -20.068 145 140 137
20.136784 13.379473 -20.271 147 143 140
20.136784 13.379473 -20.473 148 144 141
20.136784 13.379473 -20.676 148 146 143
20.136784 13.379473 -20.879 151 148 145
20.136784 13.379473 -21.082 154 151 148
20.136784 13.379473 -21.284 156 156 156
20.136784 13.379473 -21.487 160 160 161
20.136784 13.379473 -21.69 164 164 164
20.136784 13.379473 -21.892 164 165 165
20.136784 13.379473 -22.095 159 162 162
20.136784 13.379473 -22.298 157 161 160
20.136784 13.379473 -22.5 152 156 155
20.136784 13.379473 -22.703 150 154 153
20.422625 13.56857 -22.894 149 151 150
20.422625 13.56857 -23.097 132 131 129
20.708393 13.758803 -23.288 104 89 75
20.708393 13.758803 -23.49 119 104 85
20.708393 13.758803 -23.693 124 111 93
20.708393 13.758803 -23.895 126 113 97
20.708393 13.758803 -24.098 127 116 101
20.708393 13.758803 -24.3 129 118 106
20.708393 13.758803 -24.503 131 120 108
20.708393 13.758803 -24.705 133 122 112
20.708393 13.758803 -24.908 134 122 115
20.708393 13.758803 -25.11 132 124 116
20.708393 13.758803 -25.313 133 123 116
20.708393 13.758803 -25.515 134 122 115
20.708393 13.758803 -25.718 133 121 114
20.708393 13.758803 -25.92 133 121 114
20.708393 13.758803 -26.123 133 121 114
20.708393 13.758803 -26.325 133 122 112
20.708393 13.758803 -26.528 132 121 112
20.708393 13.758803 -26.73 133 121 114
20.708393 13.758803 -26.933 133 121 114
20.708393 13.758803 -27.135 133 121 114
20.708393 13.758803 -27.338 133 121 114
20.708393 13.758803 -27.54 133 121 114
20.708393 13.758803 -27.743 132 121 114
20.708393 13.758803 -27.945 131 120 113
20.708393 13.758803 -28.148 131 120 113
20.708393 13.758803 -28.35 130 120 114
20.708393 13.758803 -28.553 131 121 114
20.708393 13.758803 -28.755 133 121 114
20.708393 13.758803 -28.958 132 121 114
20.708393 13.758803 -29.16 131 121 115
20.708393 13.758803 -29.363 131 121 115
20.708393 13.758803 -29.565 131 122 115
20.708393 13.758803 -29.768 132 124 118
20.708393 13.758803 -29.97 133 126 120
20.708393 13.758803 -30.173 133 128 121
20.708393 13.758803 -30.375 134 128 121
20.708393 13.758803 -30.578 134 126 120
20.708393 13.758803 -30.983 132 127 119
20.422625 13.56857 -33.835 138 130 123
20.422625 13.56857 -34.038 137 129 122
20.422625 13.56857 -34.24 137 129 123
20.422625 13.56857 -34.443 137 129 121
20.422625 13.56857 -34.645 136 129 123
20.422625 13.56857 -34.848 138 131 126
20.422625 13.56857 -35.051 140 132 128
20.422625 13.56857 -35.253 142 134 128
20.422625 13.56857 -35.456 142 134 128
20.422625 13.56857 -35.658 142 134 128
20.422625 13.56857 -35.861 142 134 128
20.422625 13.56857 -36.064 142 134 126
20.422625 13.56857 -36.266 141 135 126
20.422625 13.56857 -36.469 142 134 125
20.422625 13.56857 -36.671 143 135 127
20.422625 13.56857 -36.874 143 135 127
20.422625 13.56857 -37.077 142 136 128
20.422625 13.56857 -37.279 144 136 129
20.422625 13.56857 -37.482 143 135 129
20.422625 13.56857 -37.684 142 135 129
20.422625 13.56857 -37.887 144 136 131
20.422625 13.56857 -38.09 143 137 132
20.422625 13.56857 -38.292 142 138 133
20.422625 13.56857 -38.495 143 137 134
20.422625 13.56857 -38.698 143 137 134
20.422625 13.56857 -38.9 144 137 134
20.422625 13.56857 -39.103 145 139 134
21.278868 14.138063 -39.246 146 140 137
21.278868 14.138063 -39.448 146 142 137
20.422625 13.56857 -39.711 148 145 139
21.278868 14.138063 -39.853 147 143 140
20.422625 13.56857 -40.116 149 147 141
21.278868 14.138063 -40.258 147 145 141
21.278868 14.138063 -40.46 148 144 141
21.278868 14.138063 -40.662 148 144 141
21.278868 14.138063 -40.864 148 145 140
21.278868 14.138063 -41.067 148 145 140
21.278868 14.138063 -41.269 151 144 140
21.278868 14.138063 -41.471 150 145 139
21.278868 14.138063 -41.674 148 144 138
21.278868 14.138063 -41.876 147 142 136
21.278868 14.138063 -42.078 143 141 134
21.278868 14.138063 -42.281 143 140 133
21.278868 14.138063 -42.483 142 140 132
21.278868 14.138063 -42.685 142 140 133
21.278868 14.138063 -42.887 143 139 135
20.136784 13.379473 -43.177 142 136 134
20.136784 13.379473 -43.379 142 136 134
20.136784 13.379473 -43.582 142 136 134
20.136784 13.379473 -43.785 143 137 135
20.136784 13.379473 -43.987 142 138 135
20.136784 13.379473 -44.19 142 139 133
20.422625 13.56857 -44.37 143 141 137
20.136784 13.379473 -44.596 143 139 136
20.136784 13.379473 -44.798 141 140 138
20.136784 13.379473 -45.001 141 140 138
20.136784 13.379473 -45.204 145 144 142
20.136784 13.379473 -45.406 147 146 146
20.136784 13.379473 -45.609 148 147 143
20.136784 13.379473 -45.812 147 146 144
20.136784 13.379473 -46.014 147 146 144
20.136784 13.379473 -46.217 150 146 145
20.136784 13.379473 -46.42 149 143 141
20.136784 13.379473 -46.623 148 142 140
20.136784 13.379473 -46.825 147 141 139
20.136784 13.379473 -47.028 147 141 139
20.136784 13.379473 -47.231 147 141 139
20.136784 13.379473 -47.433 147 141 141
20.136784 13.379473 -47.636 147 141 141
20.136784 13.379473 -47.839 147 141 141
20.136784 13.379473 -48.042 146 142 141
20.136784 13.379473 -48.244 147 142 141
20.136784 13.379473 -48.447 148 142 140
20.136784 13.379473 -48.65 148 143 140
20.136784 13.379473 -48.852 148 143 138
20.136784 13.379473 -49.055 149 143 136
20.136784 13.379473 -49.258 149 143 136
20.136784 13.379473 -49.46 148 143 136
20.136784 13.379473 -49.663 146 141 134
20.136784 13.379473 -49.866 145 140 132
20.136784 13.379473 -50.069 144 139 130
20.136784 13.379473 -50.271 144 137 129
20.136784 13.379473 -50.474 144 136 128
20.136784 13.379473 -50.677 142 134 126
20.136784 13.379473 -50.879 140 131 122
20.136784 13.379473 -51.082 135 126 118
19.851013 13.1892395 -51.311 131 121 114
19.851013 13.1892395 -51.513 125 118 114
19.564108 12.998934 -51.742 132 128 129
19.564108 12.998934 -51.945 142 140 140
19.564108 12.998934 -52.148 151 151 149
19.564108 12.998934 -52.351 160 160 159
19.27834 12.808701 -52.581 169 168 166
19.27834 12.808701 -52.784 172 172 171
19.27834 12.808701 -52.987 171 171 171
19.27834 12.808701 -53.19 168 168 166
19.27834 12.808701 -53.393 164 164 162
19.27834 12.808701 -53.596 161 160 156
19.27834 12.808701 -53.799 155 154 149
19.27834 12.808701 -54.002 151 147 140
19.27834 12.808701 -54.205 145 143 134
19.27834 12.808701 -54.408 149 142 132
19.27834 12.808701 -55.017 144 139 134
19.27834 12.808701 -55.22 146 141 136
19.27834 12.808701 -55.423 146 141 136
19.27834 12.808701 -55.626 148 142 136
19.27834 12.808701 -55.829 149 141 134
19.27834 12.808701 -56.032 149 141 133
19.27834 12.808701 -56.235 148 140 132
19.27834 12.808701 -56.438 148 139 132
19.27834 12.808701 -56.641 147 138 130
19.27834 12.808701 -56.844 146 139 131
19.27834 12.808701 -57.047 145 139 134
19.27834 12.808701 -57.25 144 138 135
19.27834 12.808701 -57.453 144 138 134
19.27834 12.808701 -57.656 142 137 133
19.27834 12.808701 -57.859 142 135 131
19.27834 12.808701 -58.062 143 135 129
19.27834 12.808701 -58.265 143 135 128
19.27834 12.808701 -58.468 143 135 128
19.27834 12.808701 -58.671 144 135 128
19.27834 12.808701 -58.874 144 135 129
19.27834 12.808701 -59.077 143 136 131
19.27834 12.808701 -59.28 143 137 132
19.27834 12.808701 -59.483 143 136 131
19.27834 12.808701 -59.686 143 138 133
19.27834 12.808701 -59.889 146 143 137
19.27834 12.808701 -60.092 149 145 139
19.27834 12.808701 -60.295 149 144 139
19.27834 12.808701 -60.498 148 142 137
19.27834 12.808701 -60.701 143 136 132
19.27834 12.808701 -60.904 138 131 128
19.27834 12.808701 -61.107 134 125 121
19.27834 12.808701 -61.31 131 124 119
19.27834 12.808701 -61.513 128 125 120
19.27834 12.808701 -61.919 126 127 120
19.27834 12.808701 -62.122 122 123 114
19.27834 12.808701 -62.325 119 120 111
20.136784 13.379473 -62.434 125 122 116
19.27834 12.808701 -62.731 115 112 100
20.136784 13.379473 -62.839 104 99 92
19.27834 12.808701 -63.34 82 70 62
18.990368 12.6171875 -63.575 71 63 55
17.176645 12.206386 1.018 111 110 110
18.022083 12.807776 0.813 144 143 141
17.176645 12.206386 0.611 187 186 179
17.176645 12.206386 0.407 215 212 203
17.458458 12.406849 0.204 228 225 215
17.741404 12.60742 -0.203 228 224 215
19.146149 13.607043 -0.406 225 222 211
19.146149 13.607043 -0.609 214 211 202
19.146149 13.607043 -0.812 204 201 196
18.866495 13.4079275 -1.015 191 187 181
19.146149 13.607043 -1.217 187 180 174
19.146149 13.607043 -1.42 178 170 164
19.426935 13.806267 -1.622 182 172 160
19.426935 13.806267 -1.825 182 172 161
19.706589 14.005383 -2.027 168 163 154
19.706589 14.005383 -2.23 129 127 114
19.706589 14.005383 -2.432 133 133 118
20.824282 14.799472 -2.63 132 128 121
20.824282 14.799472 -2.832 140 134 123
20.824282 14.799472 -3.034 144 135 125
20.824282 14.799472 -3.237 144 137 126
20.824282 14.799472 -3.439 147 135 128
20.824282 14.799472 -3.641 144 136 128
19.986347 14.203365 -3.849 150 144 142
19.986347 14.203365 -4.052 156 151 150
19.986347 14.203365 -4.255 154 152 152
19.986347 14.203365 -4.457 154 152 151
19.986347 14.203365 -4.66 148 147 142
19.986347 14.203365 -4.863 144 142 134
19.986347 14.203365 -5.065 141 139 133
20.824282 14.799472 -5.26 136 133 125
19.986347 14.203365 -5.47 139 138 130
19.986347 14.203365 -5.673 138 137 130
19.986347 14.203365 -5.876 138 136 129
20.824282 14.799472 -6.069 132 132 125
20.824282 14.799472 -6.271 135 131 125
19.986347 14.203365 -6.483 136 130 122
19.986347 14.203365 -6.686 135 130 123
20.824282 14.799472 -6.878 136 126 121
19.986347 14.203365 -7.091 136 127 121
19.986347 14.203365 -7.294 138 127 120
19.986347 14.203365 -7.496 138 127 120
19.986347 14.203365 -7.699 137 126 119
20.824282 14.799472 -7.89 130 122 116
19.986347 14.203365 -8.104 135 124 116
19.986347 14.203365 -8.307 132 120 113
19.986347 14.203365 -8.509 129 118 112
19.986347 14.203365 -8.712 129 120 114
19.986347 14.203365 -8.915 127 120 116
19.986347 14.203365 -9.117 128 120 117
19.986347 14.203365 -9.32 129 121 117
19.706589 14.005383 -9.527 135 126 121
19.706589 14.005383 -9.73 138 128 123
19.706589 14.005383 -9.933 139 129 124
19.706589 14.005383 -10.135 140 129 124
19.706589 14.005383 -10.338 139 128 124
19.706589 14.005383 -10.541 138 128 124
19.706589 14.005383 -10.743 139 129 122
19.706589 14.005383 -10.946 139 130 123
19.706589 14.005383 -11.149 139 132 122
19.706589 14.005383 -11.352 139 131 122
19.706589 14.005383 -11.554 137 129 121
19.706589 14.005383 -11.757 137 131 123
19.706589 14.005383 -11.96 139 134 126
19.706589 14.005383 -12.162 141 133 127
19.706589 14.005383 -12.365 141 133 127
19.706589 14.005383 -12.568 140 132 126
19.706589 14.005383 -12.771 141 131 126
19.706589 14.005383 -12.973 141 133 128
19.706589 14.005383 -13.176 143 135 131
19.706589 14.005383 -13.379 142 136 134
19.706589 14.005383 -13.581 144 138 136
19.706589 14.005383 -13.784 141 135 133
19.706589 14.005383 -13.987 136 128 124
19.706589 14.005383 -14.189 132 121 112
19.706589 14.005383 -14.392 136 124 117
19.706589 14.005383 -14.595 139 131 127
19.706589 14.005383 -14.798 142 134 130
19.706589 14.005383 -15.0 142 134 131
19.706589 14.005383 -15.203 142 134 132
19.706589 14.005383 -15.406 141 135 130
19.706589 14.005383 -15.608 142 135 130
19.706589 14.005383 -15.811 141 135 130
19.706589 14.005383 -16.014 142 134 130
19.706589 14.005383 -16.217 142 134 129
19.706589 14.005383 -16.419 142 134 130
19.706589 14.005383 -16.622 141 135 130
19.706589 14.005383 -16.825 142 135 131
19.706589 14.005383 -17.027 141 136 131
19.706589 14.005383 -17.23 139 134 129
19.706589 14.005383 -17.433 138 132 127
19.706589 14.005383 -17.635 140 132 126
19.706589 14.005383 -17.838 141 133 127
19.706589 14.005383 -18.041 143 135 130
19.706589 14.005383 -18.244 145 136 130
19.706589 14.005383 -18.446 143 135 131
19.706589 14.005383 -18.649 141 133 129
19.706589 14.005383 -18.852 140 133 130
19.706589 14.005383 -19.054 142 136 133
19.706589 14.005383 -19.257 145 140 135
19.706589 14.005383 -22.095 166 166 166
19.706589 14.005383 -22.298 163 164 164
19.706589 14.005383 -22.5 159 160 160
19.706589 14.005383 -22.703 154 155 157
19.706589 14.005383 -22.906 157 157 159
19.706589 14.005383 -23.109 142 142 143
19.986347 14.203365 -23.3 95 81 75
19.986347 14.203365 -23.502 108 93 82
19.986347 14.203365 -25.123 127 117 112
19.986347 14.203365 -26.946 132 125 114
19.986347 14.203365 -27.149 133 127 116
19.986347 14.203365 -27.352 130 125 114
19.986347 14.203365 -27.554 127 122 111
19.986347 14.203365 -27.757 127 122 110
19.986347 14.203365 -27.959 129 121 111
19.986347 14.203365 -28.162 132 120 113
19.986347 14.203365 -28.365 132 120 112
19.986347 14.203365 -28.567 130 117 111
19.986347 14.203365 -28.77 130 116 108
19.986347 14.203365 -28.972 133 118 108
19.986347 14.203365 -29.175 134 119 110
19.986347 14.203365 -29.378 132 120 111
19.986347 14.203365 -29.58 133 122 113
19.986347 14.203365 -29.783 134 124 116
19.986347 14.203365 -29.986 135 127 120
19.986347 14.203365 -30.188 137 129 122
19.986347 14.203365 -30.391 137 129 123
19.986347 14.203365 -30.593 136 128 122
19.986347 14.203365 -30.796 135 127 120
19.986347 14.203365 -30.999 136 127 119
19.986347 14.203365 -31.201 136 127 119
19.986347 14.203365 -31.404 136 128 120
19.986347 14.203365 -31.606 137 129 122
19.986347 14.203365 -31.809 137 129 124
19.986347 14.203365 -32.012 137 129 124
19.986347 14.203365 -32.214 136 128 123
19.986347 14.203365 -32.417 136 128 122
19.986347 14.203365 -32.619 135 127 121
19.986347 14.203365 -32.822 135 127 122
19.986347 14.203365 -33.025 135 127 123
20.824282 14.799472 -33.177 135 127 123
19.986347 14.203365 -33.43 136 130 127
20.824282 14.799472 -33.582 136 127 126
20.824282 14.799472 -33.784 137 128 127
20.824282 14.799472 -33.986 136 129 127
20.824282 14.799472 -34.189 135 129 127
20.824282 14.799472 -34.391 135 129 127
20.824282 14.799472 -34.593 135 130 125
20.824282 14.799472 -34.795 135 130 125
20.824282 14.799472 -34.998 135 130 125
20.824282 14.799472 -35.2 136 131 126
20.824282 14.799472 -35.402 139 131 125
20.824282 14.799472 -36.009 139 131 125
19.706589 14.005383 -36.69 143 135 129
19.706589 14.005383 -36.893 142 137 130
19.706589 14.005383 -37.095 144 136 130
19.706589 14.005383 -37.703 142 137 130
19.706589 14.005383 -37.906 142 137 131
19.706589 14.005383 -38.109 141 138 132
19.706589 14.005383 -38.312 140 138 132
19.706589 14.005383 -38.514 140 140 133
19.706589 14.005383 -38.717 141 141 134
19.706589 14.005383 -38.92 143 143 136
19.706589 14.005383 -39.122 145 145 138
19.706589 14.005383 -39.325 146 145 139
19.706589 14.005383 -39.528 147 143 140
19.706589 14.005383 -39.731 146 142 139
19.706589 14.005383 -39.933 145 141 137
19.706589 14.005383 -40.136 142 139 133
19.706589 14.005383 -40.339 138 134 128
19.706589 14.005383 -40.541 131 127 120
19.706589 14.005383 -40.744 129 125 116
19.706589 14.005383 -40.947 134 128 119
19.706589 14.005383 -41.149 137 133 127
19.706589 14.005383 -41.352 140 138 133
19.706589 14.005383 -41.555 141 140 135
19.706589 14.005383 -41.758 142 142 138
19.706589 14.005383 -41.96 143 143 139
19.706589 14.005383 -42.163 144 143 139
19.706589 14.005383 -42.366 144 143 139
19.706589 14.005383 -42.568 143 142 138
19.706589 14.005383 -42.771 143 142 138
19.706589 14.005383 -42.974 143 143 137
19.706589 14.005383 -43.177 143 143 136
19.706589 14.005383 -43.379 143 143 136
19.706589 14.005383 -43.582 145 142 136
19.706589 14.005383 -43.785 145 142 136
19.706589 14.005383 -43.987 146 141 136
19.706589 14.005383 -44.19 146 141 136
19.706589 14.005383 -44.393 145 139 137
19.706589 14.005383 -44.596 144 140 137
19.706589 14.005383 -44.798 143 139 136
19.706589 14.005383 -45.001 140 139 135
19.706589 14.005383 -45.204 141 140 136
19.706589 14.005383 -45.406 142 141 137
19.706589 14.005383 -45.609 142 142 138
19.706589 14.005383 -45.812 143 143 139
19.706589 14.005383 -46.014 143 143 139
19.706589 14.005383 -46.217 144 144 140
19.706589 14.005383 -46.42 145 144 140
19.706589 14.005383 -46.623 144 143 139
19.706589 14.005383 -46.825 143 142 138
19.426935 13.806267 -47.052 144 142 138
19.426935 13.806267 -47.254 146 142 138
19.426935 13.806267 -48.471 148 145 139
19.706589 14.005383 -48.65 149 146 140
19.426935 13.806267 -48.877 149 145 140
19.426935 13.806267 -49.08 149 145 139
19.426935 13.806267 -49.283 149 144 138
19.426935 13.806267 -49.485 149 144 138
19.426935 13.806267 -49.688 149 145 138
19.426935 13.806267 -49.891 150 145 138
19.426935 13.806267 -50.094 150 144 138
19.426935 13.806267 -50.297 150 144 136
19.426935 13.806267 -50.499 148 141 133
19.426935 13.806267 -50.702 144 138 129
19.426935 13.806267 -50.905 141 134 124
19.426935 13.806267 -51.108 137 130 122
19.426935 13.806267 -51.311 132 125 118
19.426935 13.806267 -51.513 115 112 109
19.146149 13.607043 -51.742 129 126 124
19.146149 13.607043 -51.945 144 142 140
18.866495 13.4079275 -52.174 152 153 151
18.866495 13.4079275 -52.378 159 160 158
18.584682 13.207463 -52.607 165 166 163
18.584682 13.207463 -52.81 163 164 160
18.584682 13.207463 -53.013 160 160 156
18.584682 13.207463 -53.216 160 160 156
18.584682 13.207463 -53.42 161 161 155
18.584682 13.207463 -53.623 160 160 152
18.584682 13.207463 -53.826 160 160 152
18.584682 13.207463 -54.029 158 158 151
18.584682 13.207463 -54.232 157 157 150
18.584682 13.207463 -54.435 155 154 150
18.584682 13.207463 -54.638 152 151 147
18.584682 13.207463 -54.841 152 149 143
18.584682 13.207463 -55.044 150 149 145
18.584682 13.207463 -55.248 150 150 143
18.584682 13.207463 -55.451 149 148 144
18.584682 13.207463 -55.654 149 146 140
18.584682 13.207463 -55.857 150 142 134
18.584682 13.207463 -56.06 148 140 132
18.584682 13.207463 -56.263 147 139 131
18.584682 13.207463 -56.466 146 139 133
18.584682 13.207463 -56.669 143 140 134
18.584682 13.207463 -56.872 144 139 135
18.584682 13.207463 -57.076 146 140 138
18.584682 13.207463 -57.279 148 144 142
18.584682 13.207463 -57.482 149 147 145
18.584682 13.207463 -57.685 152 147 144
18.584682 13.207463 -57.888 150 147 143
18.584682 13.207463 -58.091 148 148 141
18.584682 13.207463 -58.294 147 147 140
18.584682 13.207463 -58.497 147 146 139
18.584682 13.207463 -58.701 147 144 138
18.584682 13.207463 -58.904 147 144 138
18.584682 13.207463 -59.107 147 142 138
18.584682 13.207463 -59.31 147 142 138
18.584682 13.207463 -59.513 147 143 137
18.584682 13.207463 -59.716 147 142 137
18.584682 13.207463 -59.919 143 141 135
18.584682 13.207463 -60.122 143 141 133
18.584682 13.207463 -60.325 142 140 135
18.584682 13.207463 -60.529 144 141 135
18.584682 13.207463 -60.732 145 142 134
18.584682 13.207463 -60.935 146 143 135
18.584682 13.207463 -61.138 147 144 136
18.584682 13.207463 -61.341 147 144 136
18.584682 13.207463 -61.544 146 143 136
18.584682 13.207463 -61.747 142 139 133
18.584682 13.207463 -61.95 141 136 131
18.584682 13.207463 -62.154 138 133 128
18.584682 13.207463 -62.357 134 128 126
18.584682 13.207463 -62.56 132 124 118
18.584682 13.207463 -62.763 123 115 109
18.584682 13.207463 -62.966 114 102 95
18.584682 13.207463 -63.169 98 82 74
18.584682 13.207463 -63.372 79 60 51
16.784758 12.739894 0.815 146 145 144
16.784758 12.739894 0.611 186 183 176
16.784758 12.739894 0.407 215 210 198
17.060135 12.949111 0.204 230 225 214
17.060135 12.949111 -0.204 224 220 210
17.060135 12.949111 -0.407 214 209 201
17.336641 13.15847 -0.61 215 210 202
17.610888 13.367544 -0.813 212 209 200
18.160656 13.784705 -1.016 189 188 184
18.436033 13.993922 -1.218 191 186 172
18.709293 14.201724 -1.42 185 182 168
18.709293 14.201724 -1.623 181 178 158
18.983683 14.409669 -1.825 169 165 149
19.256945 14.617471 -2.027 164 158 146
19.256945 14.617471 -2.23 144 140 130
19.256945 14.617471 -2.432 140 136 133
19.256945 14.617471 -2.635 146 141 137
19.256945 14.617471 -2.838 147 142 137
19.256945 14.617471 -3.041 147 142 137
19.256945 14.617471 -3.243 149 141 135
19.256945 14.617471 -3.446 145 140 135
19.256945 14.617471 -3.649 145 140 135
19.256945 14.617471 -3.851 145 144 140
19.256945 14.617471 -4.054 153 151 145
19.256945 14.617471 -4.257 150 149 147
19.256945 14.617471 -4.46 153 149 144
19.256945 14.617471 -4.662 148 146 142
19.256945 14.617471 -4.865 149 144 139
19.256945 14.617471 -5.068 148 143 138
19.256945 14.617471 -5.27 146 141 136
19.256945 14.617471 -5.473 143 138 133
19.256945 14.617471 -5.676 143 135 130
19.256945 14.617471 -5.878 141 133 127
19.256945 14.617471 -6.081 136 128 123
19.256945 14.617471 -6.284 135 125 119
19.256945 14.617471 -6.487 139 129 119
19.256945 14.617471 -6.689 138 129 119
19.256945 14.617471 -6.892 138 129 119
19.256945 14.617471 -7.095 138 129 119
19.256945 14.617471 -7.297 138 129 119
19.256945 14.617471 -7.5 137 130 119
19.256945 14.617471 -7.703 136 128 119
19.256945 14.617471 -7.906 136 127 121
19.256945 14.617471 -8.108 137 129 123
19.256945 14.617471 -8.311 138 132 125
19.256945 14.617471 -8.514 138 133 128
19.256945 14.617471 -8.716 137 133 127
19.256945 14.617471 -8.919 136 132 128
19.256945 14.617471 -9.122 134 131 129
19.256945 14.617471 -9.325 132 131 129
19.256945 14.617471 -9.527 133 132 130
19.256945 14.617471 -9.73 136 135 132
19.256945 14.617471 -9.933 139 137 133
19.256945 14.617471 -10.135 139 137 134
19.256945 14.617471 -10.338 139 138 133
19.256945 14.617471 -10.541 139 138 133
19.256945 14.617471 -10.743 139 138 134
19.256945 14.617471 -10.946 140 137 134
19.256945 14.617471 -11.149 141 137 134
19.256945 14.617471 -11.352 141 137 134
19.256945 14.617471 -11.554 138 136 133
19.256945 14.617471 -11.757 135 134 134
19.256945 14.617471 -11.96 137 135 130
19.256945 14.617471 -12.162 139 135 130
19.256945 14.617471 -12.365 141 134 130
19.256945 14.617471 -12.568 139 133 128
19.256945 14.617471 -12.771 138 133 128
19.256945 14.617471 -12.973 140 135 130
19.256945 14.617471 -13.176 144 138 135
19.256945 14.617471 -13.379 147 143 140
19.256945 14.617471 -13.581 144 143 141
19.256945 14.617471 -13.784 142 141 137
19.256945 14.617471 -13.987 142 138 135
18.983683 14.409669 -17.847 142 138 132
18.983683 14.409669 -18.05 146 138 134
18.983683 14.409669 -18.253 147 141 137
18.983683 14.409669 -18.456 147 140 137
18.983683 14.409669 -18.658 146 141 136
18.983683 14.409669 -18.861 147 143 138
18.983683 14.409669 -19.064 148 144 141
18.983683 14.409669 -19.267 149 147 143
18.983683 14.409669 -19.47 151 150 147
19.803608 15.031944 -19.643 144 141 139
19.803608 15.031944 -19.845 143 139 136
19.803608 15.031944 -20.048 144 140 135
19.803608 15.031944 -20.25 147 143 138
18.983683 14.409669 -20.484 155 151 149
18.983683 14.409669 -20.687 153 150 147
18.983683 14.409669 -20.889 157 154 152
18.983683 14.409669 -21.092 162 159 155
18.983683 14.409669 -21.295 162 160 159
18.983683 14.409669 -21.498 161 160 160
18.983683 14.409669 -21.701 161 161 161
18.983683 14.409669 -21.903 163 164 164
18.983683 14.409669 -22.106 164 165 166
19.256945 14.617471 -22.703 152 157 157
19.256945 14.617471 -22.906 154 158 159
19.256945 14.617471 -23.109 138 136 134
19.256945 14.617471 -23.311 79 78 77
19.530348 14.824142 -23.502 100 92 82
19.530348 14.824142 -23.705 114 105 97
19.530348 14.824142 -23.907 117 109 99
19.530348 14.824142 -24.11 121 112 102
19.530348 14.824142 -24.313 123 115 105
19.530348 14.824142 -24.515 123 116 105
19.530348 14.824142 -24.718 125 118 107
19.530348 14.824142 -24.92 128 119 110
19.530348 14.824142 -25.123 128 118 109
19.530348 14.824142 -25.326 131 120 111
19.530348 14.824142 -25.528 132 121 111
19.530348 14.824142 -25.731 133 120 113
19.530348 14.824142 -25.933 135 121 112
19.530348 14.824142 -26.136 136 121 110
19.530348 14.824142 -26.339 135 122 111
19.530348 14.824142 -26.541 136 121 111
19.530348 14.824142 -26.744 134 122 111
19.530348 14.824142 -26.946 134 124 114
20.349142 15.446276 -27.108 130 123 112
20.349142 15.446276 -27.31 130 123 111
19.530348 14.824142 -27.554 131 125 113
19.530348 14.824142 -27.757 131 123 111
19.530348 14.824142 -27.959 131 123 111
19.530348 14.824142 -28.162 131 122 111
19.530348 14.824142 -28.365 131 121 110
19.530348 14.824142 -28.567 129 120 109
19.530348 14.824142 -28.77 129 121 109
19.530348 14.824142 -28.972 129 121 110
20.349142 15.446276 -29.131 127 118 106
20.349142 15.446276 -29.333 125 115 105
20.349142 15.446276 -29.536 126 117 107
20.349142 15.446276 -29.738 130 121 112
20.349142 15.446276 -29.94 133 125 117
20.349142 15.446276 -30.143 136 127 119
20.349142 15.446276 -30.345 137 128 120
20.349142 15.446276 -30.547 136 128 121
20.349142 15.446276 -30.749 129 122 118
20.349142 15.446276 -30.952 128 121 118
20.349142 15.446276 -31.154 135 125 121
20.349142 15.446276 -31.356 137 128 124
19.530348 14.824142 -31.606 137 129 123
19.530348 14.824142 -31.809 135 129 124
19.530348 14.824142 -32.012 133 129 125
20.349142 15.446276 -32.166 131 126 121
19.530348 14.824142 -32.417 129 127 125
19.530348 14.824142 -32.619 128 125 122
19.530348 14.824142 -32.822 128 124 120
19.530348 14.824142 -33.025 132 127 123
19.530348 14.824142 -33.227 135 130 125
19.530348 14.824142 -33.43 138 133 128
19.256945 14.617471 -33.649 142 137 132
19.256945 14.617471 -33.852 144 136 134
19.256945 14.617471 -34.055 142 136 134
19.256945 14.617471 -34.257 141 135 133
19.256945 14.617471 -34.46 140 134 132
19.256945 14.617471 -34.663 141 135 133
19.256945 14.617471 -34.866 141 135 133
19.256945 14.617471 -35.068 143 135 131
19.256945 14.617471 -35.271 142 134 130
19.256945 14.617471 -35.474 140 130 125
19.256945 14.617471 -35.676 138 128 123
19.256945 14.617471 -35.879 137 127 124
19.256945 14.617471 -36.082 137 127 122
19.256945 14.617471 -36.285 137 127 124
19.256945 14.617471 -36.487 138 128 125
19.256945 14.617471 -36.69 138 130 126
19.256945 14.617471 -36.893 140 132 128
19.256945 14.617471 -37.095 142 134 130
19.256945 14.617471 -37.298 144 135 133
19.256945 14.617471 -37.501 144 136 132
19.256945 14.617471 -37.703 144 136 132
19.256945 14.617471 -37.906 144 136 132
19.256945 14.617471 -38.109 144 137 132
19.256945 14.617471 -38.312 143 138 133
19.256945 14.617471 -38.514 145 140 135
19.256945 14.617471 -38.717 146 141 136
19.256945 14.617471 -38.92 147 142 137
19.256945 14.617471 -39.122 148 143 138
19.256945 14.617471 -39.325 148 143 138
19.256945 14.617471 -39.528 149 143 138
19.256945 14.617471 -39.731 150 142 138
19.256945 14.617471 -39.933 148 140 136
19.256945 14.617471 -40.136 147 137 133
19.256945 14.617471 -40.339 147 136 130
19.256945 14.617471 -40.541 146 134 127
19.256945 14.617471 -40.744 144 132 125
19.256945 14.617471 -40.947 143 133 127
19.256945 14.617471 -41.149 144 136 130
19.256945 14.617471 -41.352 145 138 134
19.256945 14.617471 -41.555 145 139 137
19.256945 14.617471 -41.758 146 140 138
19.256945 14.617471 -41.96 146 140 138
19.256945 14.617471 -42.163 147 141 139
19.256945 14.617471 -42.366 147 141 139
19.256945 14.617471 -42.568 146 140 138
19.256945 14.617471 -42.771 146 141 137
19.256945 14.617471 -42.974 146 141 136
19.256945 14.617471 -43.177 146 141 136
19.256945 14.617471 -43.379 146 141 136
19.256945 14.617471 -43.582 145 139 137
19.803608 15.031944 -44.348 142 136 134
19.803608 15.031944 -44.551 142 136 136
19.803608 15.031944 -44.753 142 138 137
19.803608 15.031944 -44.956 141 140 138
19.803608 15.031944 -45.158 143 142 140
19.803608 15.031944 -45.361 144 143 139
19.803608 15.031944 -45.563 145 144 140
18.983683 14.409669 -45.835 140 139 132
19.803608 15.031944 -45.968 146 145 141
19.803608 15.031944 -46.171 146 145 141
18.983683 14.409669 -46.443 142 142 135
19.803608 15.031944 -46.576 146 145 141
18.983683 14.409669 -46.849 145 145 138
18.983683 14.409669 -47.052 146 144 136
18.983683 14.409669 -47.254 146 143 136
18.983683 14.409669 -47.457 145 143 135
18.983683 14.409669 -47.66 146 142 136
18.983683 14.409669 -47.863 146 142 137
18.983683 14.409669 -48.066 146 142 137
18.983683 14.409669 -48.269 146 142 138
18.983683 14.409669 -48.471 146 143 138
18.983683 14.409669 -48.674 146 144 139
18.983683 14.409669 -48.877 147 144 140
18.983683 14.409669 -49.08 145 144 140
18.983683 14.409669 -49.283 145 144 139
18.983683 14.409669 -49.485 146 144 139
18.983683 14.409669 -49.688 146 145 140
18.983683 14.409669 -49.891 146 145 140
18.983683 14.409669 -50.094 147 145 140
18.983683 14.409669 -50.297 147 144 140
18.983683 14.409669 -50.499 146 142 136
18.983683 14.409669 -50.702 143 138 132
18.983683 14.409669 -50.905 141 135 129
18.983683 14.409669 -51.108 138 131 125
18.709293 14.201724 -51.337 121 119 114
18.709293 14.201724 -51.539 106 105 104
18.709293 14.201724 -51.742 127 127 125
18.436033 13.993922 -51.971 145 147 146
18.436033 13.993922 -52.174 155 157 156
18.160656 13.784705 -52.404 163 164 162
18.160656 13.784705 -52.607 162 162 160
18.160656 13.784705 -52.81 158 159 157
18.160656 13.784705 -53.013 156 158 151
18.160656 13.784705 -53.216 160 161 154
18.160656 13.784705 -53.42 164 164 159
18.160656 13.784705 -53.623 167 166 162
18.160656 13.784705 -53.826 168 167 163
18.160656 13.784705 -54.029 169 169 162
18.160656 13.784705 -55.654 147 146 142
18.160656 13.784705 -55.857 144 140 136
18.160656 13.784705 -56.06 150 145 140
18.160656 13.784705 -56.263 150 144 142
18.160656 13.784705 -56.466 151 145 143
18.160656 13.784705 -57.482 148 147 145
18.160656 13.784705 -57.685 151 151 150
18.160656 13.784705 -57.888 152 152 151
18.160656 13.784705 -58.091 152 150 149
18.160656 13.784705 -58.294 153 148 145
18.160656 13.784705 -58.497 151 148 144
18.160656 13.784705 -58.904 148 146 142
18.160656 13.784705 -63.372 79 69 62
18.160656 13.784705 -63.575 65 57 49
16.10651 13.042888 1.019 111 111 111
16.644974 13.478593 0.814 143 145 144
16.644974 13.478593 0.611 184 184 179
16.644974 13.478593 0.407 210 208 204
16.644974 13.478593 0.204 225 222 218
16.644974 13.478593 -0.204 224 219 213
16.644974 13.478593 -0.407 219 214 207
16.914768 13.696534 -0.61 215 211 204
17.182314 13.91412 -0.813 212 209 203
17.182314 13.91412 -1.017 200 196 187
17.450983 14.131883 -1.219 203 196 186
17.718706 14.348344 -1.422 214 204 190
17.987375 14.566107 -1.624 212 203 191
17.987375 14.566107 -1.827 190 184 174
18.253975 14.78239 -2.029 183 177 168
18.253975 14.78239 -2.232 175 167 161
18.253975 14.78239 -2.435 168 160 156
18.521698 14.99885 -2.637 154 148 142
18.521698 14.99885 -2.839 151 144 136
18.521698 14.99885 -3.042 149 143 134
18.788296 15.215133 -3.243 151 143 137
18.521698 14.99885 -3.448 151 146 140
18.788296 15.215133 -3.649 152 144 138
18.521698 14.99885 -3.853 154 147 144
18.521698 14.99885 -4.056 156 149 145
18.788296 15.215133 -4.257 153 148 143
18.521698 14.99885 -4.462 156 151 147
18.788296 15.215133 -4.662 152 147 140
18.788296 15.215133 -4.865 152 144 136
18.521698 14.99885 -5.07 149 144 139
18.788296 15.215133 -5.27 151 143 137
18.521698 14.99885 -5.476 147 142 138
18.788296 15.215133 -5.676 149 141 137
18.788296 15.215133 -5.878 149 139 135
18.788296 15.215133 -6.081 150 138 133
18.788296 15.215133 -6.284 149 139 135
18.521698 14.99885 -6.49 151 143 141
18.788296 15.215133 -6.689 147 139 138
18.521698 14.99885 -6.896 148 142 141
18.521698 14.99885 -7.098 146 140 139
18.788296 15.215133 -7.297 141 136 134
18.788296 15.215133 -7.5 139 137 132
18.788296 15.215133 -7.703 141 136 129
18.521698 14.99885 -7.91 141 137 133
18.521698 14.99885 -8.112 140 138 134
18.253975 14.78239 -8.319 139 138 136
18.521698 14.99885 -8.518 138 135 134
18.253975 14.78239 -8.725 139 138 138
18.253975 14.78239 -8.928 143 142 142
18.253975 14.78239 -9.131 146 145 145
18.253975 14.78239 -9.334 148 147 146
18.253975 14.78239 -9.537 149 148 146
18.253975 14.78239 -9.74 149 148 146
18.253975 14.78239 -9.943 148 147 146
18.253975 14.78239 -10.146 148 145 144
18.253975 14.78239 -10.348 147 142 142
18.253975 14.78239 -10.551 147 141 140
18.253975 14.78239 -10.754 149 143 141
18.253975 14.78239 -10.957 151 146 142
18.253975 14.78239 -11.16 154 150 144
18.253975 14.78239 -11.363 154 151 145
18.253975 14.78239 -11.566 151 150 144
18.253975 14.78239 -11.769 150 147 143
18.253975 14.78239 -11.972 146 145 139
18.253975 14.78239 -12.175 144 140 133
18.253975 14.78239 -12.378 145 143 138
18.253975 14.78239 -12.58 143 143 136
18.253975 14.78239 -12.783 143 142 137
18.253975 14.78239 -12.986 144 144 141
18.253975 14.78239 -13.189 147 147 143
18.253975 14.78239 -13.392 147 147 144
18.521698 14.99885 -13.588 147 145 140
18.521698 14.99885 -13.791 147 145 139
18.521698 14.99885 -13.994 147 141 138
18.521698 14.99885 -14.197 145 139 136
18.253975 14.78239 -14.407 148 142 140
18.521698 14.99885 -14.602 144 134 130
18.521698 14.99885 -14.805 141 134 129
18.253975 14.78239 -15.015 142 141 137
18.253975 14.78239 -15.218 142 142 136
18.253975 14.78239 -15.421 140 141 139
