ply
format ascii 1.0
element vertex 1209
property float x
property float y
property float z
property uchar red
property uchar green
property uchar blue
end_header
17.741404 12.60742 -7.527 154 150 148
17.741404 12.60742 -7.73 153 150 147
17.741404 12.60742 -7.934 151 150 147
17.741404 12.60742 -8.137 150 149 146
17.741404 12.60742 -8.34 149 148 146
17.741404 12.60742 -8.544 150 150 149
17.741404 12.60742 -8.747 154 156 156
17.741404 12.60742 -8.951 155 159 159
17.741404 12.60742 -9.154 152 158 157
17.741404 12.60742 -9.358 149 155 155
17.741404 12.60742 -9.561 149 156 155
17.741404 12.60742 -9.764 148 156 154
17.741404 12.60742 -9.968 147 151 151
17.741404 12.60742 -10.171 151 152 150
17.741404 12.60742 -10.375 155 155 153
17.741404 12.60742 -10.578 157 156 156
17.741404 12.60742 -10.781 159 158 158
17.741404 12.60742 -10.985 159 158 158
17.741404 12.60742 -11.188 157 156 156
17.741404 12.60742 -11.392 155 154 154
17.741404 12.60742 -11.595 153 152 151
17.741404 12.60742 -11.799 152 151 150
17.741404 12.60742 -12.002 152 152 148
17.741404 12.60742 -12.205 152 152 148
17.741404 12.60742 -12.409 151 151 147
17.741404 12.60742 -12.612 150 149 146
17.741404 12.60742 -12.816 151 150 148
17.741404 12.60742 -13.019 151 151 148
17.741404 12.60742 -13.223 153 153 150
17.741404 12.60742 -13.426 156 155 152
17.741404 12.60742 -13.629 155 155 151
17.741404 12.60742 -13.833 155 154 151
17.741404 12.60742 -14.036 154 153 151
17.741404 12.60742 -14.24 153 152 149
17.741404 12.60742 -14.443 150 149 145
17.458458 12.406849 -14.654 151 147 144
17.741404 12.60742 -14.85 154 150 148
17.741404 12.60742 -15.053 155 152 150
17.741404 12.60742 -15.257 156 153 153
17.741404 12.60742 -15.46 161 157 158
17.741404 12.60742 -15.664 157 152 153
17.741404 12.60742 -15.867 155 151 151
17.741404 12.60742 -16.071 154 149 149
17.741404 12.60742 -16.274 153 148 147
17.741404 12.60742 -16.477 153 149 148
17.741404 12.60742 -16.681 154 149 148
17.741404 12.60742 -16.884 154 149 148
17.741404 12.60742 -17.088 154 150 149
17.741404 12.60742 -17.291 154 152 152
17.741404 12.60742 -17.494 155 152 152
17.741404 12.60742 -17.698 154 153 153
17.741404 12.60742 -17.901 154 154 153
17.741404 12.60742 -18.105 154 154 154
17.458458 12.406849 -18.317 157 158 157
17.741404 12.60742 -18.512 153 155 154
17.458458 12.406849 -18.724 153 154 154
17.458458 12.406849 -18.928 156 157 157
17.458458 12.406849 -19.132 161 162 161
17.458458 12.406849 -19.335 165 166 164
17.458458 12.406849 -19.539 166 167 166
17.458458 12.406849 -19.742 166 167 166
17.458458 12.406849 -19.946 166 166 165
17.458458 12.406849 -20.149 164 164 164
17.458458 12.406849 -20.353 162 162 161
18.584682 13.207463 -20.515 160 161 161
17.741404 12.60742 -20.749 157 156 155
17.741404 12.60742 -20.953 154 153 151
17.741404 12.60742 -21.156 151 150 147
18.022083 12.807776 -21.349 149 147 143
18.022083 12.807776 -21.552 148 142 140
18.022083 12.807776 -21.755 150 148 146
18.303896 13.008241 -21.948 150 152 150
18.303896 13.008241 -22.151 157 160 160
18.584682 13.207463 -22.546 156 160 162
18.584682 13.207463 -22.749 158 158 159
18.584682 13.207463 -22.952 126 125 125
18.866495 13.4079275 -23.144 95 94 93
18.866495 13.4079275 -31.873 142 137 135
18.866495 13.4079275 -32.076 140 137 133
18.866495 13.4079275 -32.279 139 136 133
18.866495 13.4079275 -32.482 138 136 132
18.866495 13.4079275 -32.685 139 136 131
18.866495 13.4079275 -32.888 140 136 130
18.866495 13.4079275 -33.091 141 136 130
18.866495 13.4079275 -33.294 142 137 131
18.866495 13.4079275 -33.497 142 137 132
18.866495 13.4079275 -33.7 142 137 132
18.866495 13.4079275 -33.903 143 137 134
18.866495 13.4079275 -34.106 143 138 135
18.866495 13.4079275 -34.309 142 137 134
18.866495 13.4079275 -34.512 142 137 133
18.866495 13.4079275 -34.715 143 136 131
18.866495 13.4079275 -34.918 144 136 130
18.866495 13.4079275 -35.121 142 135 131
18.866495 13.4079275 -35.324 141 136 129
18.584682 13.207463 -35.545 143 135 131
18.584682 13.207463 -35.952 142 137 132
18.584682 13.207463 -36.155 142 137 132
18.584682 13.207463 -36.358 142 137 132
18.584682 13.207463 -36.561 142 137 132
18.584682 13.207463 -36.764 141 138 132
18.584682 13.207463 -36.967 142 137 132
18.584682 13.207463 -37.17 142 137 132
18.584682 13.207463 -37.373 143 138 131
18.584682 13.207463 -37.576 142 137 130
18.584682 13.207463 -37.78 142 137 130
18.584682 13.207463 -37.983 142 137 130
18.584682 13.207463 -38.186 143 137 130
18.584682 13.207463 -38.389 145 138 132
18.584682 13.207463 -38.592 145 139 134
18.584682 13.207463 -38.795 147 140 136
18.584682 13.207463 -38.998 147 142 137
18.584682 13.207463 -39.201 148 143 137
18.584682 13.207463 -39.405 149 144 139
18.584682 13.207463 -39.608 149 144 139
18.584682 13.207463 -39.811 148 145 139
18.584682 13.207463 -40.014 147 145 140
18.584682 13.207463 -40.217 146 145 141
18.584682 13.207463 -40.42 146 145 142
18.584682 13.207463 -40.623 146 143 141
18.584682 13.207463 -40.826 145 139 137
18.584682 13.207463 -41.029 142 137 133
18.584682 13.207463 -41.233 139 133 130
18.584682 13.207463 -41.436 139 134 130
18.584682 13.207463 -41.639 141 137 131
18.584682 13.207463 -41.842 142 139 133
18.584682 13.207463 -42.045 143 139 135
18.584682 13.207463 -42.248 145 142 137
18.584682 13.207463 -42.451 147 143 139
18.584682 13.207463 -42.654 146 144 142
18.584682 13.207463 -42.857 145 144 142
18.584682 13.207463 -43.061 145 144 140
18.584682 13.207463 -43.264 145 144 140
18.584682 13.207463 -43.467 146 145 141
18.584682 13.207463 -43.67 147 143 140
18.584682 13.207463 -44.076 145 144 140
18.303896 13.008241 -51.414 116 112 106
18.022083 12.807776 -51.644 122 124 120
18.022083 12.807776 -51.847 135 136 133
17.741404 12.60742 -52.077 144 147 142
17.741404 12.60742 -52.28 155 156 151
17.458458 12.406849 -52.51 155 155 151
17.458458 12.406849 -52.713 151 151 147
17.458458 12.406849 -52.917 146 145 141
17.176645 12.206386 -53.147 138 136 131
16.893698 12.005815 -53.378 145 145 141
16.893698 12.005815 -53.582 156 156 152
16.893698 12.005815 -53.786 161 161 157
16.893698 12.005815 -53.989 167 167 163
16.893698 12.005815 -54.193 172 172 168
16.893698 12.005815 -54.397 175 175 171
16.893698 12.005815 -54.6 179 180 176
16.893698 12.005815 -54.804 180 181 177
16.610752 11.8052435 -55.036 180 181 177
16.610752 11.8052435 -56.666 180 181 178
16.610752 11.8052435 -56.87 180 182 178
16.610752 11.8052435 -57.074 180 182 179
16.610752 11.8052435 -57.889 178 184 180
16.610752 11.8052435 -58.093 177 183 180
16.610752 11.8052435 -58.909 172 176 175
16.610752 11.8052435 -59.112 173 175 174
16.610752 11.8052435 -59.316 174 174 172
16.610752 11.8052435 -59.52 173 174 172
16.610752 11.8052435 -59.724 172 172 169
16.610752 11.8052435 -59.928 169 169 165
16.610752 11.8052435 -60.132 166 165 163
16.610752 11.8052435 -60.336 163 162 159
16.610752 11.8052435 -60.539 160 159 157
16.610752 11.8052435 -60.743 160 160 158
16.610752 11.8052435 -60.947 163 162 160
16.610752 11.8052435 -61.151 166 165 164
16.610752 11.8052435 -61.355 168 167 165
16.610752 11.8052435 -61.559 170 172 171
16.610752 11.8052435 -61.762 171 172 172
16.610752 11.8052435 -61.966 170 171 170
16.610752 11.8052435 -62.17 171 169 167
16.610752 11.8052435 -62.374 169 165 164
16.610752 11.8052435 -62.578 157 155 152
16.610752 11.8052435 -62.985 146 139 134
16.893698 12.005815 -63.157 139 128 118
16.893698 12.005815 -63.361 132 122 107
16.893698 12.005815 -63.768 55 36 29
16.231743 12.321175 0.815 147 147 145
16.231743 12.321175 0.612 180 181 179
15.9553795 12.110686 0.408 204 204 199
15.9553795 12.110686 0.204 206 203 196
16.231743 12.321175 -0.204 189 183 174
16.508251 12.530535 -0.407 182 176 171
16.508251 12.530535 -0.611 196 187 181
16.784758 12.739894 -0.815 203 194 187
17.060135 12.949111 -1.018 208 205 196
17.060135 12.949111 -1.221 206 205 200
17.060135 12.949111 -1.425 199 198 194
17.060135 12.949111 -1.628 175 171 168
17.336641 13.15847 -1.831 150 148 144
17.336641 13.15847 -2.034 148 143 139
17.336641 13.15847 -2.238 149 144 137
17.336641 13.15847 -2.441 151 148 143
17.336641 13.15847 -7.12 155 150 150
17.060135 12.949111 -7.327 156 152 152
17.060135 12.949111 -7.938 154 153 151
17.060135 12.949111 -8.141 153 152 151
17.060135 12.949111 -8.345 154 153 151
17.060135 12.949111 -8.548 154 153 153
17.060135 12.949111 -8.752 154 153 153
17.060135 12.949111 -8.955 155 154 154
17.060135 12.949111 -9.159 156 155 155
17.060135 12.949111 -9.769 160 160 162
17.060135 12.949111 -9.973 160 161 163
17.060135 12.949111 -10.176 162 163 165
17.060135 12.949111 -10.38 163 164 166
17.060135 12.949111 -10.583 162 163 164
17.060135 12.949111 -10.787 161 162 162
17.060135 12.949111 -10.99 160 161 161
17.060135 12.949111 -11.194 160 161 161
17.060135 12.949111 -11.398 160 161 161
17.060135 12.949111 -11.601 161 161 161
17.060135 12.949111 -11.805 160 160 159
17.060135 12.949111 -12.008 159 159 157
17.060135 12.949111 -12.212 158 158 156
17.060135 12.949111 -12.415 155 155 153
17.060135 12.949111 -12.619 153 152 150
17.060135 12.949111 -12.822 152 151 149
17.060135 12.949111 -13.026 151 150 148
17.060135 12.949111 -13.229 150 149 145
17.060135 12.949111 -13.433 148 147 143
17.060135 12.949111 -13.636 151 147 144
17.060135 12.949111 -13.84 151 147 144
17.060135 12.949111 -14.043 148 148 141
17.060135 12.949111 -14.247 147 147 140
17.060135 12.949111 -14.45 147 144 138
17.060135 12.949111 -14.654 147 144 138
17.060135 12.949111 -14.857 149 148 144
17.060135 12.949111 -15.061 150 149 146
17.060135 12.949111 -15.265 152 152 150
17.060135 12.949111 -15.468 152 152 152
17.060135 12.949111 -15.672 152 152 152
17.060135 12.949111 -15.875 152 152 152
17.060135 12.949111 -16.079 151 150 150
17.060135 12.949111 -16.282 153 152 150
17.060135 12.949111 -16.486 153 152 150
17.060135 12.949111 -16.689 153 152 148
17.060135 12.949111 -16.893 153 152 150
17.060135 12.949111 -17.096 152 151 149
17.060135 12.949111 -17.3 154 153 150
17.060135 12.949111 -17.503 156 155 153
17.060135 12.949111 -17.707 157 157 155
17.060135 12.949111 -17.91 159 159 159
17.060135 12.949111 -18.114 160 160 160
17.060135 12.949111 -18.317 161 163 163
17.060135 12.949111 -18.521 163 166 165
17.060135 12.949111 -18.724 165 167 166
17.060135 12.949111 -18.928 163 168 167
17.060135 12.949111 -19.132 163 169 169
17.060135 12.949111 -19.335 163 169 169
17.060135 12.949111 -19.539 163 167 168
17.060135 12.949111 -19.742 162 165 166
17.060135 12.949111 -19.946 161 162 162
17.060135 12.949111 -20.149 159 160 160
17.060135 12.949111 -20.353 159 160 160
17.060135 12.949111 -20.556 158 159 159
17.060135 12.949111 -20.76 156 156 156
17.060135 12.949111 -20.963 155 154 153
17.060135 12.949111 -21.167 154 153 149
17.336641 13.15847 -21.36 150 150 147
17.610888 13.367544 -21.552 145 145 143
17.610888 13.367544 -21.755 146 149 149
17.610888 13.367544 -21.959 152 154 154
17.610888 13.367544 -22.162 160 161 161
17.886265 13.576761 -22.354 160 161 161
17.886265 13.576761 -22.557 158 159 159
18.160656 13.784705 -22.749 155 156 154
18.160656 13.784705 -22.952 141 141 141
18.436033 13.993922 -23.144 103 102 102
18.436033 13.993922 -26.189 142 138 132
18.436033 13.993922 -26.392 141 138 132
18.436033 13.993922 -26.595 142 138 132
18.436033 13.993922 -26.798 141 138 132
18.436033 13.993922 -27.001 142 137 131
18.436033 13.993922 -27.204 142 137 130
18.436033 13.993922 -27.407 143 138 131
18.436033 13.993922 -27.61 144 139 133
18.436033 13.993922 -27.813 145 139 132
18.436033 13.993922 -28.016 144 139 133
18.436033 13.993922 -28.219 143 140 133
18.436033 13.993922 -28.422 141 141 134
18.436033 13.993922 -28.625 142 139 133
18.436033 13.993922 -28.828 142 139 133
18.436033 13.993922 -29.031 142 138 132
18.436033 13.993922 -29.234 143 137 130
18.436033 13.993922 -29.437 144 136 130
18.436033 13.993922 -29.64 144 136 129
18.436033 13.993922 -29.843 144 136 129
18.436033 13.993922 -30.046 143 136 129
18.436033 13.993922 -30.249 144 137 130
18.436033 13.993922 -30.452 145 138 132
18.436033 13.993922 -30.655 144 138 132
18.160656 13.784705 -31.483 142 137 130
18.160656 13.784705 -31.686 141 136 129
18.160656 13.784705 -31.889 139 135 129
18.160656 13.784705 -32.092 138 134 127
18.160656 13.784705 -32.295 133 131 126
18.160656 13.784705 -32.499 135 130 121
18.160656 13.784705 -32.702 132 130 120
18.160656 13.784705 -32.905 133 131 123
18.160656 13.784705 -33.108 136 132 124
18.160656 13.784705 -33.311 137 132 125
18.160656 13.784705 -33.514 138 131 125
18.160656 13.784705 -33.717 138 130 123
18.160656 13.784705 -33.92 138 130 124
18.160656 13.784705 -34.123 139 131 123
19.256945 14.617471 -34.46 142 137 132
19.256945 14.617471 -34.866 140 135 128
18.160656 13.784705 -35.139 141 131 126
18.160656 13.784705 -35.342 143 131 124
18.160656 13.784705 -35.545 142 130 123
18.160656 13.784705 -35.748 138 133 128
18.160656 13.784705 -35.952 142 134 130
18.160656 13.784705 -36.155 143 135 129
18.160656 13.784705 -36.358 144 136 130
18.160656 13.784705 -36.561 142 137 128
18.160656 13.784705 -36.764 142 137 130
18.160656 13.784705 -36.967 142 137 130
18.160656 13.784705 -37.17 142 137 130
18.160656 13.784705 -37.373 142 137 130
18.160656 13.784705 -37.576 142 137 130
18.160656 13.784705 -37.78 142 137 132
18.160656 13.784705 -37.983 142 137 130
18.160656 13.784705 -38.186 143 138 133
18.160656 13.784705 -38.389 144 141 135
18.160656 13.784705 -38.592 144 139 134
18.160656 13.784705 -38.795 145 140 135
18.160656 13.784705 -38.998 146 141 136
18.160656 13.784705 -39.608 148 145 139
18.160656 13.784705 -39.811 148 145 140
18.160656 13.784705 -40.014 147 144 141
18.160656 13.784705 -40.217 146 145 140
18.160656 13.784705 -40.42 146 144 138
18.160656 13.784705 -40.623 144 141 135
18.160656 13.784705 -40.826 141 137 129
18.160656 13.784705 -41.029 138 131 121
18.160656 13.784705 -41.233 139 129 117
18.160656 13.784705 -41.436 140 132 120
17.886265 13.576761 -49.992 145 142 139
17.886265 13.576761 -50.195 145 140 135
17.886265 13.576761 -50.398 146 139 133
17.886265 13.576761 -50.601 144 138 131
17.886265 13.576761 -50.805 141 135 129
17.886265 13.576761 -51.008 136 130 124
17.886265 13.576761 -51.211 115 110 103
17.610888 13.367544 -51.44 106 97 93
17.610888 13.367544 -51.644 122 118 116
17.610888 13.367544 -51.847 137 136 134
17.336641 13.15847 -52.077 143 144 142
17.336641 13.15847 -52.28 150 152 150
17.060135 12.949111 -52.51 152 157 153
17.060135 12.949111 -52.713 149 151 145
16.784758 12.739894 -52.944 133 134 131
16.508251 12.530535 -53.174 125 126 126
16.508251 12.530535 -53.378 142 143 143
16.508251 12.530535 -53.582 156 157 156
16.508251 12.530535 -53.786 165 166 164
16.231743 12.321175 -54.017 171 176 173
16.231743 12.321175 -54.22 174 179 175
16.231743 12.321175 -54.424 175 181 176
16.231743 12.321175 -54.628 177 182 178
16.231743 12.321175 -54.832 177 183 178
16.231743 12.321175 -55.036 179 182 178
16.231743 12.321175 -55.24 180 181 179
16.231743 12.321175 -55.443 180 181 179
16.231743 12.321175 -55.647 180 181 180
15.9553795 12.110686 -56.899 182 183 180
15.9553795 12.110686 -57.103 182 183 180
15.9553795 12.110686 -57.307 182 183 181
15.9553795 12.110686 -57.511 181 182 181
15.9553795 12.110686 -57.715 181 182 182
15.9553795 12.110686 -57.919 181 182 182
15.9553795 12.110686 -58.123 181 182 182
17.336641 13.15847 -58.179 177 180 179
17.336641 13.15847 -58.383 176 178 176
17.060135 12.949111 -59.226 171 175 174
17.060135 12.949111 -59.43 170 174 173
17.060135 12.949111 -59.633 167 171 170
17.060135 12.949111 -59.837 165 167 167
16.231743 12.321175 -60.132 166 166 164
16.231743 12.321175 -60.336 161 160 158
16.231743 12.321175 -60.743 151 149 148
16.231743 12.321175 -60.947 157 156 155
17.060135 12.949111 -62.686 144 143 142
17.060135 12.949111 -62.89 141 135 134
17.060135 12.949111 -63.093 132 126 124
17.060135 12.949111 -63.297 122 118 113
17.060135 12.949111 -63.5 103 95 89
15.0265665 12.168695 0.817 149 150 150
15.0265665 12.168695 0.612 187 186 184
15.0265665 12.168695 0.408 199 199 193
15.0265665 12.168695 0.204 194 192 186
15.297485 12.386815 -0.204 178 176 170
15.567101 12.605881 -0.408 174 167 161
15.567101 12.605881 -0.612 189 180 173
15.836717 12.824946 -0.815 199 192 183
16.10651 13.042888 -1.222 210 204 198
16.10651 13.042888 -1.426 195 190 185
16.10651 13.042888 -1.63 177 172 167
16.10651 13.042888 -1.834 159 158 152
16.10651 13.042888 -2.037 148 147 146
16.376305 13.260829 -2.24 140 135 126
16.376305 13.260829 -2.444 146 143 135
16.10651 13.042888 -2.649 150 150 143
16.10651 13.042888 -2.852 157 157 152
16.10651 13.042888 -3.056 164 164 160
16.10651 13.042888 -3.26 166 166 164
16.10651 13.042888 -3.463 167 167 165
16.10651 13.042888 -3.667 166 166 166
16.10651 13.042888 -3.871 165 166 166
16.10651 13.042888 -4.075 165 166 164
16.10651 13.042888 -4.278 166 167 167
16.10651 13.042888 -4.482 166 167 165
16.10651 13.042888 -4.686 166 167 167
16.10651 13.042888 -4.89 166 167 167
16.10651 13.042888 -5.093 167 167 167
16.10651 13.042888 -5.297 165 166 166
16.10651 13.042888 -5.501 164 165 165
16.10651 13.042888 -5.705 162 163 163
16.10651 13.042888 -5.908 161 162 163
16.10651 13.042888 -6.112 158 159 159
16.10651 13.042888 -6.316 157 158 157
16.10651 13.042888 -6.519 156 155 153
16.10651 13.042888 -6.723 156 154 151
16.10651 13.042888 -6.927 157 153 150
16.10651 13.042888 -7.131 156 153 150
16.10651 13.042888 -7.334 156 155 151
16.10651 13.042888 -7.538 156 156 153
16.10651 13.042888 -7.742 153 154 153
16.10651 13.042888 -7.946 153 153 151
16.10651 13.042888 -8.149 153 153 151
16.10651 13.042888 -8.353 154 154 152
16.10651 13.042888 -8.557 155 154 152
16.10651 13.042888 -8.761 155 154 152
16.10651 13.042888 -8.964 154 153 151
16.10651 13.042888 -9.168 156 154 151
16.10651 13.042888 -9.372 157 155 152
16.10651 13.042888 -9.575 158 158 156
16.10651 13.042888 -9.779 161 161 159
16.10651 13.042888 -9.983 164 164 162
16.10651 13.042888 -10.187 164 165 164
16.10651 13.042888 -10.39 165 165 165
16.10651 13.042888 -10.594 164 164 164
16.10651 13.042888 -10.798 163 163 162
16.10651 13.042888 -11.002 162 162 160
16.10651 13.042888 -11.205 160 161 159
16.10651 13.042888 -11.409 160 161 160
16.10651 13.042888 -11.613 159 160 159
16.10651 13.042888 -11.817 157 157 153
16.10651 13.042888 -12.02 154 153 150
16.10651 13.042888 -12.224 151 150 148
16.10651 13.042888 -12.428 151 150 148
16.10651 13.042888 -12.631 153 150 147
16.10651 13.042888 -12.835 154 151 146
16.10651 13.042888 -13.039 154 151 145
16.10651 13.042888 -13.243 153 150 144
16.10651 13.042888 -13.446 153 150 144
16.10651 13.042888 -13.65 152 147 142
16.10651 13.042888 -13.854 149 144 139
16.10651 13.042888 -14.058 151 145 143
16.10651 13.042888 -14.261 148 146 144
16.10651 13.042888 -14.465 148 147 145
16.10651 13.042888 -14.669 145 144 144
16.10651 13.042888 -14.873 145 144 144
16.10651 13.042888 -15.076 147 146 144
16.10651 13.042888 -15.28 147 146 144
16.10651 13.042888 -15.484 148 147 145
16.10651 13.042888 -15.687 150 149 145
16.10651 13.042888 -15.891 153 150 146
16.10651 13.042888 -16.095 151 150 146
16.10651 13.042888 -16.299 151 148 144
16.10651 13.042888 -16.502 149 146 140
16.10651 13.042888 -16.706 151 146 141
16.10651 13.042888 -16.91 153 150 146
16.10651 13.042888 -17.114 154 153 149
16.10651 13.042888 -17.317 156 156 154
16.10651 13.042888 -17.521 159 159 158
16.10651 13.042888 -17.725 161 162 162
16.10651 13.042888 -17.929 162 165 166
16.10651 13.042888 -18.132 165 167 167
16.10651 13.042888 -18.336 166 169 169
16.10651 13.042888 -18.54 167 168 168
16.10651 13.042888 -18.743 165 167 167
16.10651 13.042888 -18.947 162 167 168
16.10651 13.042888 -19.151 162 166 166
16.10651 13.042888 -19.355 162 163 164
16.10651 13.042888 -19.558 159 160 162
16.10651 13.042888 -19.762 157 157 158
16.10651 13.042888 -19.966 157 157 157
16.10651 13.042888 -20.17 159 160 160
16.10651 13.042888 -20.373 160 160 159
16.10651 13.042888 -20.577 159 159 157
16.10651 13.042888 -20.781 158 158 155
16.10651 13.042888 -20.984 156 156 150
16.10651 13.042888 -21.188 152 151 144
16.376305 13.260829 -21.381 148 147 142
16.376305 13.260829 -21.585 142 139 132
16.644974 13.478593 -21.777 131 130 126
16.644974 13.478593 -21.981 143 142 141
16.644974 13.478593 -22.184 164 164 164
16.914768 13.696534 -22.377 167 168 168
17.182314 13.91412 -22.772 170 171 171
17.182314 13.91412 -22.975 154 151 149
17.182314 13.91412 -23.179 108 107 103
17.450983 14.131883 -23.37 113 107 107
17.450983 14.131883 -23.573 126 120 119
17.450983 14.131883 -24.996 133 129 122
17.450983 14.131883 -25.199 134 129 123
17.450983 14.131883 -25.402 138 133 127
17.450983 14.131883 -25.606 141 136 130
17.450983 14.131883 -25.809 142 137 131
17.450983 14.131883 -26.012 143 138 132
17.450983 14.131883 -26.215 143 138 132
17.450983 14.131883 -26.418 143 138 132
17.450983 14.131883 -26.622 143 138 130
17.450983 14.131883 -26.825 142 138 131
17.450983 14.131883 -27.028 143 138 132
17.450983 14.131883 -27.231 142 139 133
17.450983 14.131883 -27.435 142 139 133
17.450983 14.131883 -27.841 141 137 133
17.450983 14.131883 -28.044 141 136 133
17.450983 14.131883 -28.247 140 135 132
17.450983 14.131883 -28.451 140 137 133
17.450983 14.131883 -28.654 141 137 133
17.450983 14.131883 -28.857 142 138 132
18.253975 14.78239 -29.016 141 136 130
18.253975 14.78239 -29.219 141 136 131
18.253975 14.78239 -29.422 141 136 130
18.253975 14.78239 -29.625 141 136 129
18.253975 14.78239 -29.828 142 137 130
18.253975 14.78239 -30.031 142 137 130
18.253975 14.78239 -30.234 143 138 131
18.253975 14.78239 -30.437 143 139 132
18.253975 14.78239 -30.64 141 138 132
18.253975 14.78239 -30.843 139 138 131
18.253975 14.78239 -31.045 139 137 131
18.253975 14.78239 -31.248 140 136 130
18.253975 14.78239 -31.451 141 136 129
18.253975 14.78239 -31.654 140 135 129
18.253975 14.78239 -31.857 138 133 128
18.253975 14.78239 -32.06 138 131 126
18.253975 14.78239 -32.263 135 128 123
18.253975 14.78239 -32.466 136 127 118
18.253975 14.78239 -32.669 136 127 120
18.253975 14.78239 -32.872 137 129 123
18.253975 14.78239 -33.075 139 131 125
18.253975 14.78239 -33.277 141 133 127
18.253975 14.78239 -33.48 141 133 129
18.253975 14.78239 -33.683 140 132 127
18.253975 14.78239 -33.886 138 132 127
18.253975 14.78239 -34.089 138 133 128
18.253975 14.78239 -34.292 140 135 130
18.253975 14.78239 -34.495 140 136 130
18.253975 14.78239 -34.698 140 137 131
18.253975 14.78239 -34.901 140 135 130
18.253975 14.78239 -35.104 137 132 125
18.253975 14.78239 -35.307 137 129 125
17.182314 13.91412 -35.581 138 133 128
18.253975 14.78239 -35.712 137 132 125
17.182314 13.91412 -35.988 141 136 129
17.182314 13.91412 -36.191 142 137 128
18.253975 14.78239 -36.321 141 136 129
17.182314 13.91412 -36.598 141 136 129
18.253975 14.78239 -36.727 141 136 129
17.182314 13.91412 -37.004 142 134 130
17.182314 13.91412 -37.208 140 135 130
17.182314 13.91412 -37.614 142 137 132
18.253975 14.78239 -37.741 142 137 132
18.253975 14.78239 -37.944 142 137 132
17.182314 13.91412 -38.631 144 138 136
18.253975 14.78239 -38.756 146 142 137
17.182314 13.91412 -39.038 144 139 134
17.182314 13.91412 -39.241 144 139 135
17.182314 13.91412 -39.444 145 139 136
17.182314 13.91412 -39.648 146 141 136
17.182314 13.91412 -39.851 146 142 137
17.182314 13.91412 -40.054 146 143 137
17.182314 13.91412 -40.258 146 143 137
17.182314 13.91412 -40.461 146 143 137
17.182314 13.91412 -40.664 145 142 136
17.182314 13.91412 -40.868 142 139 133
17.182314 13.91412 -41.071 141 138 131
17.182314 13.91412 -41.274 140 137 130
17.182314 13.91412 -41.478 141 137 132
17.182314 13.91412 -41.681 142 137 133
17.182314 13.91412 -41.884 144 138 136
17.182314 13.91412 -42.088 145 139 137
17.182314 13.91412 -42.291 145 139 137
17.182314 13.91412 -42.494 141 135 133
17.182314 13.91412 -42.697 141 136 132
17.182314 13.91412 -42.901 140 135 129
17.182314 13.91412 -43.104 137 132 124
17.182314 13.91412 -43.307 136 131 124
17.182314 13.91412 -43.511 138 135 128
17.182314 13.91412 -43.714 139 136 130
17.182314 13.91412 -43.917 140 137 131
17.182314 13.91412 -44.121 140 137 131
17.182314 13.91412 -44.324 142 137 132
17.182314 13.91412 -44.527 143 138 131
17.182314 13.91412 -44.731 143 138 131
17.182314 13.91412 -44.934 144 139 134
17.182314 13.91412 -45.137 142 137 132
17.182314 13.91412 -45.341 142 137 132
17.182314 13.91412 -45.544 140 136 135
17.182314 13.91412 -45.747 141 136 129
17.182314 13.91412 -45.951 139 136 130
17.182314 13.91412 -46.154 142 137 131
17.182314 13.91412 -46.357 144 139 132
17.182314 13.91412 -46.561 145 140 135
17.182314 13.91412 -46.764 145 140 133
17.182314 13.91412 -46.967 146 144 136
17.182314 13.91412 -47.171 145 145 138
17.182314 13.91412 -47.374 147 146 140
17.182314 13.91412 -47.577 149 146 141
17.182314 13.91412 -47.781 149 148 144
17.182314 13.91412 -47.984 154 151 148
17.182314 13.91412 -48.187 155 153 151
17.182314 13.91412 -48.39 159 156 153
16.914768 13.696534 -48.618 161 161 159
16.914768 13.696534 -48.822 164 163 160
16.914768 13.696534 -49.025 165 165 162
16.914768 13.696534 -49.229 164 163 159
16.914768 13.696534 -49.432 162 161 156
16.914768 13.696534 -49.635 158 157 152
16.914768 13.696534 -49.839 154 153 149
16.914768 13.696534 -50.042 152 150 146
16.914768 13.696534 -50.246 152 148 145
16.914768 13.696534 -50.449 151 147 144
16.914768 13.696534 -50.653 151 145 142
16.914768 13.696534 -50.856 147 141 139
16.914768 13.696534 -51.059 137 134 133
16.914768 13.696534 -51.263 115 114 113
16.644974 13.478593 -51.492 113 113 113
16.644974 13.478593 -51.696 126 126 126
16.644974 13.478593 -51.899 137 138 137
16.376305 13.260829 -52.333 158 157 156
16.10651 13.042888 -52.563 157 157 153
16.10651 13.042888 -52.767 144 144 142
15.836717 12.824946 -52.997 121 120 118
15.567101 12.605881 -53.228 122 121 121
15.567101 12.605881 -53.432 143 144 142
16.644974 13.478593 -53.528 158 159 155
15.297485 12.386815 -53.867 165 166 165
15.297485 12.386815 -54.071 171 175 174
15.0265665 12.168695 -54.303 175 179 178
15.0265665 12.168695 -54.507 179 180 178
15.0265665 12.168695 -54.711 180 181 179
15.0265665 12.168695 -54.915 180 181 179
15.0265665 12.168695 -55.12 180 181 181
15.0265665 12.168695 -55.324 180 181 179
15.297485 12.386815 -55.5 180 181 179
15.297485 12.386815 -55.704 179 180 178
15.0265665 12.168695 -56.14 180 181 177
15.0265665 12.168695 -56.344 180 181 179
15.0265665 12.168695 -56.549 181 182 180
15.0265665 12.168695 -56.753 181 185 182
15.0265665 12.168695 -56.957 181 185 184
15.0265665 12.168695 -57.773 182 186 185
15.0265665 12.168695 -57.978 181 185 184
15.0265665 12.168695 -58.182 180 183 182
15.0265665 12.168695 -58.386 180 181 179
15.0265665 12.168695 -58.59 179 180 178
16.376305 13.260829 -58.645 176 178 178
16.376305 13.260829 -58.849 174 176 176
15.0265665 12.168695 -59.407 177 178 176
15.0265665 12.168695 -59.611 175 176 174
15.0265665 12.168695 -59.815 173 174 172
15.0265665 12.168695 -60.019 172 173 171
15.0265665 12.168695 -60.223 170 170 169
15.0265665 12.168695 -60.427 165 165 165
15.0265665 12.168695 -60.631 160 159 159
15.0265665 12.168695 -60.836 155 154 154
15.0265665 12.168695 -61.04 155 152 153
15.0265665 12.168695 -61.244 155 153 152
15.0265665 12.168695 -61.448 155 154 152
15.0265665 12.168695 -61.652 159 156 153
15.0265665 12.168695 -61.856 159 155 154
15.0265665 12.168695 -62.06 157 153 151
15.0265665 12.168695 -62.265 154 152 150
15.0265665 12.168695 -62.469 151 147 145
15.297485 12.386815 -63.253 140 139 135
15.297485 12.386815 -63.457 133 130 120
14.900857 12.861208 0.816 157 156 154
14.636924 12.634686 0.612 185 184 181
14.636924 12.634686 0.408 185 182 179
14.636924 12.634686 0.204 184 179 173
14.900857 12.861208 -0.204 174 171 164
15.163459 13.0886345 -0.408 176 171 161
15.163459 13.0886345 -0.612 190 185 177
15.163459 13.0886345 -0.816 200 193 187
15.426061 13.316061 -1.019 202 198 192
15.688876 13.54237 -1.63 176 177 169
15.688876 13.54237 -1.834 173 173 166
15.688876 13.54237 -2.037 167 168 167
15.688876 13.54237 -2.241 167 164 161
15.688876 13.54237 -2.445 158 157 157
15.688876 13.54237 -2.649 160 161 161
15.688876 13.54237 -2.852 163 164 162
15.688876 13.54237 -3.056 163 163 163
15.688876 13.54237 -3.26 164 164 162
15.688876 13.54237 -3.463 164 164 164
15.688876 13.54237 -3.667 163 164 164
15.688876 13.54237 -3.871 164 165 165
15.688876 13.54237 -4.075 165 166 166
15.688876 13.54237 -4.278 166 167 167
15.688876 13.54237 -4.482 167 167 167
15.688876 13.54237 -4.686 165 166 166
15.688876 13.54237 -4.89 164 165 163
15.688876 13.54237 -5.093 162 163 161
15.688876 13.54237 -5.297 159 163 162
15.688876 13.54237 -5.501 157 161 160
15.688876 13.54237 -5.705 155 159 158
15.688876 13.54237 -5.908 152 156 155
15.688876 13.54237 -6.112 147 150 150
15.688876 13.54237 -6.316 143 144 144
15.688876 13.54237 -6.519 151 152 152
15.688876 13.54237 -6.723 159 161 161
15.688876 13.54237 -6.927 160 165 165
15.688876 13.54237 -7.131 160 166 166
15.688876 13.54237 -7.334 159 165 166
15.688876 13.54237 -7.538 156 161 162
15.688876 13.54237 -7.742 155 158 159
15.688876 13.54237 -7.946 154 155 155
15.688876 13.54237 -8.149 152 153 152
15.688876 13.54237 -10.594 161 162 162
15.688876 13.54237 -10.798 161 161 161
16.476204 14.221082 -12.002 161 158 156
16.476204 14.221082 -12.205 156 155 154
16.476204 14.221082 -12.409 153 152 151
16.476204 14.221082 -12.612 149 149 147
16.476204 14.221082 -12.816 147 147 147
16.476204 14.221082 -13.019 147 147 146
16.476204 14.221082 -13.223 149 147 145
16.476204 14.221082 -13.426 149 147 144
16.476204 14.221082 -13.629 150 146 140
16.476204 14.221082 -13.833 150 145 140
16.476204 14.221082 -14.036 150 146 140
16.476204 14.221082 -14.24 150 146 139
16.476204 14.221082 -14.443 153 150 147
16.476204 14.221082 -14.647 149 146 142
16.476204 14.221082 -14.85 150 148 145
16.476204 14.221082 -15.053 153 152 149
16.476204 14.221082 -15.257 155 153 146
16.476204 14.221082 -15.46 152 151 146
16.476204 14.221082 -15.664 153 151 144
16.476204 14.221082 -15.867 154 152 145
16.476204 14.221082 -17.901 162 163 163
15.426061 13.316061 -18.141 163 164 164
15.426061 13.316061 -18.345 167 168 168
15.426061 13.316061 -18.549 169 170 170
15.426061 13.316061 -18.753 170 171 171
15.426061 13.316061 -18.957 167 168 168
15.426061 13.316061 -19.161 164 165 165
15.426061 13.316061 -19.364 161 162 162
16.476204 14.221082 -19.529 165 165 163
15.426061 13.316061 -19.772 149 149 146
16.476204 14.221082 -20.546 160 159 156
15.688876 13.54237 -20.984 154 154 153
15.688876 13.54237 -21.188 152 152 150
15.688876 13.54237 -21.392 150 150 148
15.688876 13.54237 -21.596 143 143 139
15.951692 13.768678 -21.788 127 127 120
16.213388 13.994773 -21.981 141 141 134
16.213388 13.994773 -22.184 163 163 161
16.213388 13.994773 -22.388 173 173 173
16.476204 14.221082 -22.58 170 170 170
16.476204 14.221082 -22.783 173 173 173
16.736782 14.446963 -22.975 141 140 140
16.736782 14.446963 -23.179 112 102 104
16.736782 14.446963 -23.382 125 118 118
17.780642 15.348467 -23.538 126 121 120
17.780642 15.348467 -23.741 129 124 122
17.780642 15.348467 -23.944 134 129 124
16.736782 14.446963 -24.195 134 128 126
17.780642 15.348467 -24.349 132 131 127
16.736782 14.446963 -24.602 135 130 125
17.780642 15.348467 -24.755 131 130 126
17.780642 15.348467 -24.958 133 129 126
16.736782 14.446963 -25.212 135 132 124
17.780642 15.348467 -25.364 132 131 127
16.736782 14.446963 -25.618 138 138 131
17.780642 15.348467 -25.77 138 137 133
16.736782 14.446963 -26.025 142 137 132
16.736782 14.446963 -26.228 142 137 132
17.780642 15.348467 -26.378 141 138 132
16.736782 14.446963 -26.635 144 136 130
16.736782 14.446963 -26.838 145 137 131
16.736782 14.446963 -27.042 144 139 130
16.736782 14.446963 -27.245 144 139 132
17.780642 15.348467 -27.393 142 137 132
16.736782 14.446963 -27.652 142 138 130
16.736782 14.446963 -27.855 141 138 130
16.736782 14.446963 -28.058 142 138 132
16.736782 14.446963 -28.262 143 139 132
16.736782 14.446963 -28.465 145 142 136
16.736782 14.446963 -28.668 147 143 136
16.736782 14.446963 -28.872 146 142 136
16.736782 14.446963 -29.075 146 141 136
16.736782 14.446963 -29.278 146 141 135
16.736782 14.446963 -29.482 145 140 134
16.736782 14.446963 -29.685 145 140 134
16.736782 14.446963 -29.888 144 139 132
16.736782 14.446963 -30.092 143 138 131
16.736782 14.446963 -30.295 142 137 131
16.736782 14.446963 -30.498 142 138 131
16.736782 14.446963 -30.702 141 137 130
16.736782 14.446963 -30.905 141 137 130
16.736782 14.446963 -31.108 142 137 130
16.736782 14.446963 -31.311 142 137 130
16.736782 14.446963 -31.515 142 138 132
16.736782 14.446963 -31.718 142 138 132
16.736782 14.446963 -31.921 141 138 132
16.736782 14.446963 -32.125 140 136 132
16.736782 14.446963 -32.328 138 134 132
16.736782 14.446963 -32.531 135 133 131
16.736782 14.446963 -32.735 134 131 130
16.736782 14.446963 -32.938 135 129 128
16.736782 14.446963 -33.141 136 129 125
16.736782 14.446963 -33.345 135 127 122
16.736782 14.446963 -33.548 133 127 119
16.736782 14.446963 -33.751 133 128 119
16.736782 14.446963 -33.955 137 130 122
16.736782 14.446963 -34.158 140 132 124
16.736782 14.446963 -34.361 142 134 126
16.736782 14.446963 -34.565 142 134 127
16.736782 14.446963 -34.768 141 133 127
16.736782 14.446963 -34.971 141 133 129
16.736782 14.446963 -35.175 141 133 129
16.736782 14.446963 -35.378 141 135 130
16.736782 14.446963 -35.581 142 137 130
16.736782 14.446963 -35.785 142 137 132
16.736782 14.446963 -35.988 142 137 130
16.736782 14.446963 -36.191 142 137 130
16.736782 14.446963 -36.395 142 137 130
16.736782 14.446963 -36.598 142 137 132
16.736782 14.446963 -36.801 141 136 131
16.736782 14.446963 -37.004 141 136 131
16.736782 14.446963 -37.208 141 136 131
16.736782 14.446963 -37.411 143 135 131
16.736782 14.446963 -37.614 142 137 130
16.736782 14.446963 -37.818 142 137 130
16.736782 14.446963 -38.021 142 137 130
16.736782 14.446963 -38.224 142 137 130
16.736782 14.446963 -38.428 143 138 132
16.736782 14.446963 -38.631 143 138 133
16.736782 14.446963 -38.834 143 139 132
16.736782 14.446963 -39.038 142 138 132
16.736782 14.446963 -39.241 141 136 131
16.736782 14.446963 -39.444 142 136 131
16.736782 14.446963 -39.648 143 137 132
16.736782 14.446963 -39.851 144 137 133
16.736782 14.446963 -40.054 145 137 133
16.736782 14.446963 -40.258 145 137 132
16.736782 14.446963 -40.461 146 138 132
16.736782 14.446963 -40.664 145 137 131
16.736782 14.446963 -40.868 144 136 130
16.736782 14.446963 -42.291 144 136 132
16.736782 14.446963 -42.494 143 137 132
16.736782 14.446963 -42.697 142 137 132
16.736782 14.446963 -42.901 141 136 131
16.736782 14.446963 -43.104 140 135 130
16.736782 14.446963 -43.307 140 134 131
16.736782 14.446963 -43.511 140 132 127
16.476204 14.221082 -45.567 146 141 137
16.476204 14.221082 -45.77 147 140 136
16.476204 14.221082 -45.974 144 139 134
16.476204 14.221082 -46.177 144 140 135
16.476204 14.221082 -46.584 147 145 139
16.476204 14.221082 -47.194 148 147 144
16.476204 14.221082 -47.398 151 150 145
16.476204 14.221082 -47.601 153 151 147
16.476204 14.221082 -47.805 153 152 149
16.476204 14.221082 -48.008 154 152 151
16.476204 14.221082 -48.212 153 153 152
16.476204 14.221082 -48.415 156 156 154
16.476204 14.221082 -48.618 159 159 157
16.476204 14.221082 -48.822 162 161 156
16.476204 14.221082 -49.025 161 161 157
16.476204 14.221082 -49.229 160 159 156
16.476204 14.221082 -49.432 158 157 153
16.476204 14.221082 -49.635 154 153 149
16.476204 14.221082 -49.839 153 151 147
17.259272 14.897821 -49.967 149 144 141
17.259272 14.897821 -50.17 148 145 143
17.259272 14.897821 -50.373 147 146 143
17.259272 14.897821 -50.576 146 145 141
16.476204 14.221082 -50.856 140 136 132
16.476204 14.221082 -51.059 137 131 127
16.476204 14.221082 -51.263 133 125 122
16.213388 13.994773 -51.492 128 120 120
16.213388 13.994773 -51.696 130 125 127
15.951692 13.768678 -52.129 150 149 144
15.688876 13.54237 -52.359 155 155 152
15.688876 13.54237 -52.563 153 153 146
15.426061 13.316061 -52.794 142 141 140
15.163459 13.0886345 -53.024 123 123 121
15.163459 13.0886345 -53.228 125 125 123
14.900857 12.861208 -53.459 144 147 146
14.900857 12.861208 -53.663 155 160 158
14.636924 12.634686 -53.895 163 169 167
14.636924 12.634686 -54.099 167 176 173
14.636924 12.634686 -54.303 172 179 177
14.636924 12.634686 -54.507 176 182 180
14.636924 12.634686 -54.711 177 183 181
14.636924 12.634686 -54.915 177 183 181
14.636924 12.634686 -55.12 177 183 181
14.636924 12.634686 -55.324 178 182 179
14.636924 12.634686 -55.528 178 181 178
14.636924 12.634686 -55.732 178 180 178
14.636924 12.634686 -55.936 177 181 180
14.636924 12.634686 -56.14 181 181 179
14.636924 12.634686 -56.344 181 182 180
14.636924 12.634686 -56.549 183 183 181
14.636924 12.634686 -56.753 184 185 183
14.636924 12.634686 -56.957 182 183 181
14.636924 12.634686 -57.161 181 182 180
14.636924 12.634686 -57.365 180 181 181
14.636924 12.634686 -57.569 178 182 181
14.636924 12.634686 -57.773 178 182 181
14.636924 12.634686 -57.978 178 182 181
14.636924 12.634686 -58.182 177 180 180
14.636924 12.634686 -58.386 178 179 179
14.636924 12.634686 -58.59 177 178 178
14.636924 12.634686 -58.794 177 178 178
14.636924 12.634686 -58.998 176 176 176
14.636924 12.634686 -59.202 175 175 175
14.636924 12.634686 -59.407 174 174 173
14.636924 12.634686 -59.611 174 173 171
14.636924 12.634686 -59.815 172 171 169
14.636924 12.634686 -60.019 169 169 167
14.636924 12.634686 -60.223 167 167 165
14.636924 12.634686 -60.427 165 165 164
14.636924 12.634686 -60.631 162 162 162
14.636924 12.634686 -60.836 159 159 159
14.636924 12.634686 -61.04 156 156 156
14.636924 12.634686 -61.244 154 155 155
14.636924 12.634686 -61.448 154 155 155
14.636924 12.634686 -61.652 156 157 157
14.636924 12.634686 -61.856 156 157 157
14.636924 12.634686 -62.06 153 154 154
14.636924 12.634686 -62.265 147 148 148
14.636924 12.634686 -62.469 144 144 144
14.636924 12.634686 -62.673 141 140 139
14.636924 12.634686 -62.877 140 139 137
14.636924 12.634686 -63.081 138 138 136
14.636924 12.634686 -63.285 132 131 128
14.636924 12.634686 -63.49 121 114 108
14.900857 12.861208 -63.865 64 44 42
15.163459 13.0886345 -64.037 19 7 7
13.9766445 12.851287 1.021 131 131 128
14.232836 13.088209 0.817 163 164 162
13.9766445 12.851287 0.613 187 188 183
14.232836 13.088209 0.408 182 183 177
14.489524 13.322909 0.204 184 182 174
14.232836 13.088209 -0.204 174 170 163
14.489524 13.322909 -0.408 183 179 173
14.744853 13.558472 -0.612 196 192 184
14.744853 13.558472 -0.816 200 196 187
14.744853 13.558472 -1.02 203 200 190
14.744853 13.558472 -1.224 201 200 189
14.744853 13.558472 -1.428 181 182 172
14.744853 13.558472 -1.632 163 164 155
15.000181 13.794035 -1.835 168 168 161
15.000181 13.794035 -2.038 162 161 156
15.000181 13.794035 -2.242 155 152 147
15.000181 13.794035 -2.446 146 145 143
15.000181 13.794035 -2.65 151 149 146
15.000181 13.794035 -2.854 156 155 153
15.000181 13.794035 -3.058 160 159 157
15.000181 13.794035 -3.261 162 162 160
15.000181 13.794035 -3.465 163 164 162
15.000181 13.794035 -3.669 164 165 163
15.255758 14.028487 -3.871 162 166 165
15.255758 14.028487 -4.075 162 166 165
15.255758 14.028487 -4.278 161 165 164
15.255758 14.028487 -4.482 161 165 164
15.000181 13.794035 -4.688 159 161 161
15.000181 13.794035 -4.892 159 161 161
15.000181 13.794035 -5.096 158 160 161
15.000181 13.794035 -5.3 156 159 158
15.000181 13.794035 -5.504 154 155 155
15.000181 13.794035 -5.707 152 153 153
15.000181 13.794035 -5.911 152 152 150
15.000181 13.794035 -6.115 149 148 145
15.000181 13.794035 -6.319 143 142 135
15.000181 13.794035 -6.523 143 142 137
15.000181 13.794035 -6.727 140 138 134
15.000181 13.794035 -6.93 142 141 139
15.000181 13.794035 -7.134 150 150 147
15.000181 13.794035 -7.338 155 154 153
15.000181 13.794035 -7.542 157 157 155
15.000181 13.794035 -7.746 158 157 156
15.000181 13.794035 -7.95 156 155 155
15.000181 13.794035 -8.153 154 153 153
15.000181 13.794035 -8.357 153 152 152
15.000181 13.794035 -8.561 153 152 153
15.000181 13.794035 -8.765 156 156 156
15.000181 13.794035 -8.969 158 158 158
15.000181 13.794035 -9.173 159 160 160
15.000181 13.794035 -9.376 160 161 161
15.000181 13.794035 -9.58 159 160 160
15.000181 13.794035 -9.784 159 160 160
15.000181 13.794035 -9.988 159 159 160
15.000181 13.794035 -10.192 158 159 160
15.000181 13.794035 -10.396 159 160 160
14.744853 13.558472 -10.605 158 159 159
14.744853 13.558472 -10.809 158 159 159
14.744853 13.558472 -11.013 155 156 156
14.744853 13.558472 -11.217 153 153 153
14.744853 13.558472 -11.421 148 149 149
14.744853 13.558472 -11.625 147 147 144
14.744853 13.558472 -11.828 150 151 148
14.744853 13.558472 -12.032 155 155 153
14.744853 13.558472 -12.236 157 157 157
14.744853 13.558472 -12.44 161 160 160
14.744853 13.558472 -12.644 160 159 159
14.744853 13.558472 -12.848 159 159 159
14.744853 13.558472 -13.052 159 159 159
14.744853 13.558472 -13.256 158 159 159
14.744853 13.558472 -13.46 161 161 162
14.744853 13.558472 -13.664 159 160 162
14.744853 13.558472 -13.868 157 158 158
14.744853 13.558472 -14.072 159 162 162
14.744853 13.558472 -14.276 159 160 158
14.744853 13.558472 -14.48 159 163 162
14.744853 13.558472 -14.684 158 158 158
14.744853 13.558472 -14.888 157 153 150
14.744853 13.558472 -15.092 153 149 146
14.744853 13.558472 -15.295 156 150 148
14.744853 13.558472 -15.499 154 153 151
14.744853 13.558472 -15.703 155 154 152
14.744853 13.558472 -15.907 157 156 154
14.744853 13.558472 -16.111 154 154 152
14.744853 13.558472 -16.315 154 154 152
14.744853 13.558472 -16.519 154 154 152
14.744853 13.558472 -16.723 155 155 153
14.744853 13.558472 -16.927 157 158 158
14.744853 13.558472 -17.131 159 160 160
14.744853 13.558472 -17.335 161 163 162
14.744853 13.558472 -17.539 163 167 166
14.744853 13.558472 -17.743 165 171 171
14.744853 13.558472 -17.947 168 172 171
14.744853 13.558472 -18.151 165 169 168
14.744853 13.558472 -18.355 165 169 168
14.744853 13.558472 -18.558 166 170 169
14.744853 13.558472 -18.762 167 170 169
14.744853 13.558472 -18.966 168 169 169
14.744853 13.558472 -19.17 167 168 168
14.744853 13.558472 -19.374 166 166 165
14.744853 13.558472 -19.578 163 163 161
14.744853 13.558472 -19.782 161 161 156
14.744853 13.558472 -19.986 159 158 153
14.744853 13.558472 -20.19 159 159 154
14.744853 13.558472 -20.394 163 164 159
14.744853 13.558472 -20.598 162 163 160
15.000181 13.794035 -20.791 160 160 158
15.255758 14.028487 -20.984 157 157 155
15.255758 14.028487 -21.188 155 155 153
15.765801 14.497143 -21.37 150 149 146
15.765801 14.497143 -21.574 143 142 138
15.765801 14.497143 -21.777 128 127 125
15.765801 14.497143 -21.981 138 138 138
15.765801 14.497143 -22.184 163 164 164
16.021378 14.731594 -22.377 179 180 180
16.021378 14.731594 -22.58 179 180 180
16.274733 14.965549 -22.772 169 170 173
16.274733 14.965549 -22.975 141 138 140
16.5292 15.199753 -23.167 108 99 101
16.5292 15.199753 -23.37 121 113 111
16.274733 14.965549 -23.585 127 122 120
16.274733 14.965549 -23.789 131 123 118
16.274733 14.965549 -23.992 131 126 119
16.274733 14.965549 -24.195 133 128 123
16.274733 14.965549 -24.399 133 130 124
16.274733 14.965549 -24.602 135 130 125
16.274733 14.965549 -24.805 134 130 127
16.274733 14.965549 -25.009 135 131 128
16.274733 14.965549 -25.212 137 133 130
16.274733 14.965549 -25.415 137 136 132
16.274733 14.965549 -25.618 138 136 132
16.274733 14.965549 -25.822 140 136 133
16.274733 14.965549 -26.025 140 137 131
16.274733 14.965549 -26.228 141 138 132
16.274733 14.965549 -26.432 141 138 132
16.274733 14.965549 -26.635 142 137 132
16.274733 14.965549 -26.838 141 138 132
16.274733 14.965549 -27.042 142 137 132
16.274733 14.965549 -27.245 143 140 134
16.274733 14.965549 -27.448 143 140 135
16.274733 14.965549 -27.652 144 140 137
16.274733 14.965549 -27.855 144 140 137
16.274733 14.965549 -28.058 144 140 137
16.274733 14.965549 -28.262 143 141 137
16.274733 14.965549 -28.465 145 141 138
16.274733 14.965549 -28.668 146 142 138
16.274733 14.965549 -28.872 146 142 136
16.274733 14.965549 -29.075 145 140 135
16.274733 14.965549 -29.278 144 138 134
16.274733 14.965549 -29.482 145 137 133
16.274733 14.965549 -29.685 144 136 132
16.274733 14.965549 -29.888 144 136 131
16.274733 14.965549 -30.092 144 136 130
16.274733 14.965549 -30.295 144 136 130
16.274733 14.965549 -30.498 144 136 130
16.274733 14.965549 -30.702 144 136 129
16.274733 14.965549 -30.905 144 136 129
16.274733 14.965549 -31.108 143 137 130
16.274733 14.965549 -31.311 142 137 130
16.274733 14.965549 -31.515 143 138 132
16.274733 14.965549 -31.718 142 137 131
16.274733 14.965549 -31.921 142 137 131
16.274733 14.965549 -32.125 142 135 131
16.274733 14.965549 -32.328 142 134 128
16.274733 14.965549 -32.531 140 132 127
16.274733 14.965549 -32.735 139 131 127
16.5292 15.199753 -32.921 138 130 124
16.274733 14.965549 -33.141 138 130 126
16.274733 14.965549 -33.345 138 129 126
16.274733 14.965549 -33.548 137 129 124
16.274733 14.965549 -33.751 138 128 123
16.274733 14.965549 -33.955 138 128 121
16.274733 14.965549 -34.158 137 129 121
16.274733 14.965549 -34.361 137 129 121
16.274733 14.965549 -34.565 137 129 121
16.274733 14.965549 -34.768 138 130 122
16.5292 15.199753 -34.954 139 129 125
16.5292 15.199753 -35.157 139 129 125
16.5292 15.199753 -35.36 141 132 128
16.274733 14.965549 -35.581 143 135 129
16.274733 14.965549 -35.785 143 135 129
16.274733 14.965549 -35.988 141 136 131
16.021378 14.731594 -36.209 141 136 131
16.021378 14.731594 -36.413 141 135 131
16.274733 14.965549 -36.598 141 136 131
16.021378 14.731594 -36.82 140 135 130
16.021378 14.731594 -37.023 140 135 129
16.021378 14.731594 -37.227 141 135 129
16.021378 14.731594 -37.43 140 135 129
16.021378 14.731594 -37.633 141 135 129
16.021378 14.731594 -37.837 140 136 130
16.021378 14.731594 -38.04 140 136 130
16.021378 14.731594 -38.244 141 136 132
16.021378 14.731594 -38.447 142 137 133
16.021378 14.731594 -38.651 144 138 135
16.021378 14.731594 -38.854 145 139 135
16.021378 14.731594 -39.057 146 139 135
16.021378 14.731594 -39.261 144 138 135
16.021378 14.731594 -39.464 144 138 134
16.021378 14.731594 -39.668 144 138 134
16.021378 14.731594 -39.871 144 138 135
16.021378 14.731594 -40.075 144 139 135
16.021378 14.731594 -40.278 144 139 135
16.021378 14.731594 -40.481 144 139 135
16.021378 14.731594 -40.685 145 140 135
16.021378 14.731594 -40.888 144 139 134
16.021378 14.731594 -41.092 144 138 133
16.021378 14.731594 -41.295 144 136 132
16.021378 14.731594 -41.499 144 136 132
16.021378 14.731594 -41.702 143 135 130
16.021378 14.731594 -41.905 143 135 129
16.021378 14.731594 -42.109 143 135 130
16.021378 14.731594 -42.312 143 135 130
16.021378 14.731594 -42.516 143 136 130
16.274733 14.965549 -42.697 143 136 130
16.274733 14.965549 -42.901 143 135 129
16.274733 14.965549 -43.104 143 135 129
16.274733 14.965549 -43.307 143 135 129
16.274733 14.965549 -43.511 143 135 129
16.274733 14.965549 -43.714 142 136 129
16.274733 14.965549 -43.917 142 137 130
16.274733 14.965549 -44.121 142 137 132
16.274733 14.965549 -44.324 143 138 133
16.274733 14.965549 -44.527 143 138 133
16.274733 14.965549 -44.731 144 139 134
16.274733 14.965549 -44.934 145 140 133
16.274733 14.965549 -45.137 147 139 133
16.274733 14.965549 -45.341 146 141 134
16.274733 14.965549 -45.544 148 140 134
16.274733 14.965549 -45.747 146 141 134
16.274733 14.965549 -45.951 148 141 135
16.274733 14.965549 -46.154 147 142 137
16.274733 14.965549 -46.357 148 143 138
16.274733 14.965549 -46.561 148 145 139
16.274733 14.965549 -46.764 148 144 141
16.274733 14.965549 -46.967 147 146 144
16.274733 14.965549 -47.171 147 147 145
16.274733 14.965549 -47.374 149 148 146
16.274733 14.965549 -47.577 149 149 147
16.274733 14.965549 -47.781 150 149 147
16.274733 14.965549 -47.984 152 151 149
16.274733 14.965549 -48.187 153 152 150
16.274733 14.965549 -48.39 154 153 151
16.274733 14.965549 -48.594 157 156 153
15.765801 14.497143 -48.846 154 153 149
15.765801 14.497143 -49.05 154 153 151
15.765801 14.497143 -49.254 153 150 148
15.765801 14.497143 -49.457 151 147 144
15.765801 14.497143 -49.661 148 143 140
15.765801 14.497143 -49.864 146 141 137
15.765801 14.497143 -50.068 146 139 134
16.274733 14.965549 -50.22 145 140 135
16.274733 14.965549 -50.424 143 138 132
16.274733 14.965549 -50.627 143 137 130
16.021378 14.731594 -50.856 141 135 129
