ply
format ascii 1.0
element vertex 1185
property float x
property float y
property float z
property uchar red
property uchar green
property uchar blue
end_header
20.510191 -15.23178 -3.844 150 146 143
20.510191 -15.23178 -4.046 150 146 143
20.510191 -15.23178 -4.248 149 145 142
20.510191 -15.23178 -4.451 146 145 141
20.510191 -15.23178 -4.653 146 145 141
20.510191 -15.23178 -4.855 146 146 139
20.510191 -15.23178 -5.057 146 145 141
20.510191 -15.23178 -5.26 147 145 142
20.510191 -15.23178 -5.462 149 145 142
20.510191 -15.23178 -5.664 147 146 142
20.510191 -15.23178 -5.867 148 144 141
20.510191 -15.23178 -6.069 149 143 141
20.510191 -15.23178 -6.271 149 143 143
20.510191 -15.23178 -6.474 149 143 143
20.510191 -15.23178 -6.676 148 144 143
20.510191 -15.23178 -6.878 146 145 142
20.510191 -15.23178 -7.08 146 145 141
20.510191 -15.23178 -7.283 147 145 141
20.510191 -15.23178 -7.485 149 145 142
20.510191 -15.23178 -7.687 148 145 142
20.510191 -15.23178 -7.89 147 146 142
20.510191 -15.23178 -8.092 147 146 143
20.510191 -15.23178 -8.294 148 147 145
20.510191 -15.23178 -8.497 148 147 145
20.510191 -15.23178 -8.699 147 147 146
20.510191 -15.23178 -8.901 148 147 146
20.510191 -15.23178 -9.103 149 148 146
20.510191 -15.23178 -9.306 149 148 146
20.510191 -15.23178 -9.508 150 148 145
20.510191 -15.23178 -9.71 150 148 144
20.510191 -15.23178 -9.913 148 147 143
20.510191 -15.23178 -10.115 148 145 142
20.510191 -15.23178 -10.317 147 145 140
20.510191 -15.23178 -10.52 147 145 138
20.510191 -15.23178 -10.722 147 144 138
20.510191 -15.23178 -10.924 146 144 139
20.510191 -15.23178 -11.126 147 146 140
20.510191 -15.23178 -11.329 147 147 142
20.510191 -15.23178 -11.531 147 147 143
20.510191 -15.23178 -11.733 148 147 144
20.510191 -15.23178 -11.936 147 147 144
20.234856 -15.028389 -12.144 148 147 143
20.234856 -15.028389 -12.346 149 149 144
20.234856 -15.028389 -12.549 151 150 146
20.510191 -15.23178 -12.745 150 149 147
20.510191 -15.23178 -12.947 152 151 149
20.234856 -15.028389 -13.156 156 153 151
20.234856 -15.028389 -13.358 156 156 154
20.234856 -15.028389 -13.561 159 158 157
20.234856 -15.028389 -13.763 160 159 158
20.234856 -15.028389 -13.966 158 159 157
20.510191 -15.23178 -14.161 153 153 149
20.234856 -15.028389 -14.37 137 138 137
20.234856 -15.028389 -14.573 138 139 132
20.234856 -15.028389 -14.775 131 132 126
20.234856 -15.028389 -14.978 129 130 127
20.234856 -15.028389 -15.18 130 132 130
20.234856 -15.028389 -15.382 138 141 139
20.234856 -15.028389 -15.585 146 147 147
20.234856 -15.028389 -15.787 147 147 147
20.234856 -15.028389 -15.99 147 146 146
20.234856 -15.028389 -16.192 150 146 145
20.234856 -15.028389 -16.394 147 146 145
20.234856 -15.028389 -16.597 146 146 143
20.234856 -15.028389 -16.799 147 146 143
20.234856 -15.028389 -17.002 147 145 143
20.234856 -15.028389 -17.204 148 147 143
20.234856 -15.028389 -17.406 149 148 145
20.234856 -15.028389 -17.609 150 148 147
20.510191 -15.23178 -17.802 152 148 147
20.234856 -15.028389 -18.014 153 150 149
20.234856 -15.028389 -18.216 152 151 149
20.234856 -15.028389 -18.418 152 151 149
20.234856 -15.028389 -18.621 151 151 150
20.234856 -15.028389 -18.823 152 152 151
20.234856 -15.028389 -19.026 155 155 154
20.510191 -15.23178 -19.218 160 160 158
20.510191 -15.23178 -19.421 161 162 161
20.510191 -15.23178 -19.623 164 164 163
20.510191 -15.23178 -19.825 165 165 164
20.784483 -15.435623 -20.018 165 165 165
20.784483 -15.435623 -20.22 164 165 165
20.510191 -15.23178 -20.432 162 163 163
20.234856 -15.028389 -20.645 160 160 160
20.234856 -15.028389 -20.847 159 160 158
20.510191 -15.23178 -21.039 157 158 157
20.784483 -15.435623 -21.231 155 156 156
20.784483 -15.435623 -21.433 153 154 154
20.510191 -15.23178 -21.646 151 153 153
20.784483 -15.435623 -21.837 150 151 151
21.058773 -15.639465 -22.028 146 145 143
21.058773 -15.639465 -22.231 146 145 143
21.058773 -15.639465 -22.433 152 151 151
21.058773 -15.639465 -22.635 158 159 159
21.058773 -15.639465 -22.837 158 159 159
21.331568 -15.842716 -23.027 151 154 153
21.605406 -16.045513 -23.218 151 153 153
21.605406 -16.045513 -23.42 141 142 141
21.605406 -16.045513 -23.622 104 104 98
21.605406 -16.045513 -23.823 86 86 84
21.879246 -16.248312 -24.013 108 101 93
21.879246 -16.248312 -24.215 117 109 99
21.879246 -16.248312 -24.417 123 114 103
21.879246 -16.248312 -24.619 128 118 108
21.879246 -16.248312 -24.82 132 121 111
21.879246 -16.248312 -25.022 133 122 112
21.879246 -16.248312 -25.224 135 121 112
21.879246 -16.248312 -25.426 135 123 116
21.879246 -16.248312 -25.628 138 126 119
21.879246 -16.248312 -25.829 138 130 124
21.879246 -16.248312 -26.031 141 133 129
21.879246 -16.248312 -26.233 141 133 128
21.879246 -16.248312 -26.435 138 130 128
21.879246 -16.248312 -26.637 137 129 125
21.879246 -16.248312 -26.838 135 128 124
21.879246 -16.248312 -27.04 133 126 121
21.879246 -16.248312 -27.242 131 122 118
21.879246 -16.248312 -27.444 132 122 117
21.879246 -16.248312 -27.646 131 123 118
21.879246 -16.248312 -27.847 132 125 118
21.879246 -16.248312 -28.049 134 126 118
21.605406 -16.045513 -28.265 135 127 119
21.605406 -16.045513 -28.467 135 127 119
21.605406 -16.045513 -28.669 135 128 120
21.879246 -16.248312 -28.856 135 127 120
21.605406 -16.045513 -29.073 136 128 122
21.605406 -16.045513 -29.275 135 127 122
21.605406 -16.045513 -29.476 135 127 121
21.605406 -16.045513 -29.678 133 126 122
21.605406 -16.045513 -29.88 133 127 122
21.605406 -16.045513 -30.082 134 127 122
21.605406 -16.045513 -30.284 134 128 123
21.605406 -16.045513 -30.486 134 128 124
21.879246 -16.248312 -30.672 133 128 123
21.879246 -16.248312 -30.874 134 129 124
21.879246 -16.248312 -31.076 134 129 123
21.879246 -16.248312 -31.278 134 129 123
21.605406 -16.045513 -31.495 135 130 125
21.879246 -16.248312 -31.681 134 128 123
21.879246 -16.248312 -31.883 133 128 123
21.605406 -16.045513 -32.101 134 129 126
21.605406 -16.045513 -32.303 134 128 124
21.605406 -16.045513 -32.505 131 126 121
21.605406 -16.045513 -32.707 130 125 120
21.605406 -16.045513 -32.909 131 123 119
21.605406 -16.045513 -33.111 131 123 119
21.605406 -16.045513 -33.312 131 123 119
21.605406 -16.045513 -33.514 131 123 119
21.605406 -16.045513 -33.716 131 123 117
21.605406 -16.045513 -33.918 130 122 118
21.605406 -16.045513 -34.12 130 122 116
21.605406 -16.045513 -34.322 127 122 115
21.605406 -16.045513 -34.524 126 121 116
21.605406 -16.045513 -34.726 128 123 118
21.879246 -16.248312 -34.91 131 123 117
21.605406 -16.045513 -35.129 132 124 120
21.331568 -15.842716 -35.349 133 123 119
21.605406 -16.045513 -35.533 134 126 120
21.605406 -16.045513 -35.735 133 124 116
21.605406 -16.045513 -35.937 134 124 114
21.605406 -16.045513 -36.139 131 123 114
21.605406 -16.045513 -36.341 131 124 113
21.605406 -16.045513 -36.543 131 124 113
21.331568 -15.842716 -36.763 133 125 115
21.331568 -15.842716 -36.965 133 125 117
21.331568 -15.842716 -37.167 134 126 120
21.605406 -16.045513 -37.35 134 126 120
21.331568 -15.842716 -37.571 134 126 120
21.331568 -15.842716 -37.773 132 127 120
21.331568 -15.842716 -37.975 129 123 118
21.605406 -16.045513 -38.158 120 112 106
21.605406 -16.045513 -38.36 116 106 98
21.605406 -16.045513 -38.562 118 108 98
21.605406 -16.045513 -38.764 123 115 106
21.605406 -16.045513 -38.965 128 120 114
21.605406 -16.045513 -39.167 131 124 118
21.331568 -15.842716 -39.389 134 128 122
21.605406 -16.045513 -39.571 136 129 123
21.331568 -15.842716 -39.793 136 130 124
21.605406 -16.045513 -39.975 137 129 123
21.331568 -15.842716 -40.197 138 130 122
21.331568 -15.842716 -40.399 137 130 122
21.331568 -15.842716 -40.601 137 130 122
21.331568 -15.842716 -40.803 137 131 124
21.331568 -15.842716 -41.005 137 132 125
21.331568 -15.842716 -41.207 137 132 127
21.331568 -15.842716 -41.409 136 131 127
21.331568 -15.842716 -41.611 135 130 126
21.331568 -15.842716 -41.813 136 129 125
21.331568 -15.842716 -42.015 136 129 121
21.605406 -16.045513 -42.196 136 130 122
21.331568 -15.842716 -42.419 137 130 121
21.331568 -15.842716 -42.621 137 129 122
21.331568 -15.842716 -42.823 137 129 121
21.331568 -15.842716 -43.025 136 128 120
21.331568 -15.842716 -43.227 136 127 120
21.331568 -15.842716 -43.429 136 126 120
21.331568 -15.842716 -43.631 135 125 119
21.331568 -15.842716 -43.833 137 125 118
21.605406 -16.045513 -44.013 136 125 115
21.331568 -15.842716 -44.237 138 126 119
21.331568 -15.842716 -44.439 138 126 119
21.331568 -15.842716 -44.641 139 127 120
21.331568 -15.842716 -44.843 136 128 122
21.331568 -15.842716 -45.045 135 129 124
21.605406 -16.045513 -45.224 134 126 118
21.605406 -16.045513 -45.426 134 126 120
21.605406 -16.045513 -45.628 130 126 114
21.605406 -16.045513 -45.83 129 124 115
21.331568 -15.842716 -46.055 130 126 116
21.331568 -15.842716 -46.257 129 125 115
21.331568 -15.842716 -46.459 130 125 116
21.331568 -15.842716 -46.661 130 124 115
21.331568 -15.842716 -46.863 131 123 116
21.331568 -15.842716 -47.065 132 124 117
21.331568 -15.842716 -47.267 133 125 117
21.331568 -15.842716 -47.469 135 125 119
21.331568 -15.842716 -47.671 135 127 119
21.331568 -15.842716 -47.873 135 128 119
21.331568 -15.842716 -48.075 136 129 118
21.331568 -15.842716 -48.277 136 129 118
21.331568 -15.842716 -48.479 135 128 117
21.331568 -15.842716 -48.681 135 128 117
21.331568 -15.842716 -48.883 135 128 117
21.331568 -15.842716 -49.085 136 128 117
21.331568 -15.842716 -49.287 137 128 118
21.331568 -15.842716 -49.489 137 129 118
21.331568 -15.842716 -49.691 137 130 119
21.058773 -15.639465 -49.918 139 131 123
21.058773 -15.639465 -50.12 137 131 122
21.058773 -15.639465 -50.322 137 130 122
21.331568 -15.842716 -50.499 134 126 116
21.331568 -15.842716 -50.701 134 123 113
21.331568 -15.842716 -50.903 132 119 108
21.058773 -15.639465 -51.13 133 124 114
21.058773 -15.639465 -51.332 132 123 113
21.058773 -15.639465 -51.534 127 118 107
21.058773 -15.639465 -51.737 121 112 101
21.058773 -15.639465 -51.939 103 93 85
20.784483 -15.435623 -52.167 113 101 92
21.058773 -15.639465 -52.343 108 104 100
21.058773 -15.639465 -52.545 124 121 118
20.784483 -15.435623 -52.774 140 139 138
20.784483 -15.435623 -52.976 150 150 149
20.510191 -15.23178 -53.205 149 149 147
20.510191 -15.23178 -53.407 142 141 141
20.234856 -15.028389 -53.636 139 136 135
19.684324 -14.619065 -53.893 127 125 123
19.684324 -14.619065 -54.095 128 128 128
19.40958 -14.414178 -54.325 139 140 138
19.40958 -14.414178 -54.528 148 148 146
19.40958 -14.414178 -54.731 155 155 151
19.133793 -14.209742 -54.961 166 166 162
19.684324 -14.619065 -55.108 164 164 160
19.684324 -14.619065 -55.311 169 170 164
19.684324 -14.619065 -55.514 172 173 167
19.684324 -14.619065 -55.716 165 166 160
19.684324 -14.619065 -55.919 162 163 157
19.684324 -14.619065 -56.122 157 159 154
19.684324 -14.619065 -56.324 157 158 153
19.684324 -14.619065 -56.527 157 160 156
19.684324 -14.619065 -56.729 161 161 157
19.684324 -14.619065 -56.932 160 161 158
19.684324 -14.619065 -57.135 160 160 157
19.684324 -14.619065 -57.337 160 159 156
19.684324 -14.619065 -57.54 159 158 155
19.684324 -14.619065 -57.742 159 158 155
19.684324 -14.619065 -57.945 158 158 156
19.684324 -14.619065 -58.148 159 159 156
19.684324 -14.619065 -58.35 157 160 157
19.684324 -14.619065 -58.553 154 158 155
19.684324 -14.619065 -58.755 156 160 154
19.684324 -14.619065 -58.958 163 165 160
19.40958 -14.414178 -59.19 169 171 164
19.40958 -14.414178 -59.393 174 175 167
19.40958 -14.414178 -59.596 176 176 170
19.133793 -14.209742 -59.829 175 176 171
19.133793 -14.209742 -60.031 174 175 170
19.133793 -14.209742 -60.234 173 174 169
19.133793 -14.209742 -60.437 172 174 170
19.133793 -14.209742 -60.64 172 174 168
19.133793 -14.209742 -60.843 171 173 167
19.133793 -14.209742 -61.046 170 173 167
19.133793 -14.209742 -61.248 169 173 168
19.133793 -14.209742 -61.451 170 173 168
19.133793 -14.209742 -61.654 169 173 168
19.133793 -14.209742 -61.857 170 175 167
19.133793 -14.209742 -62.06 172 175 167
18.857552 -14.004261 -62.294 173 175 168
19.133793 -14.209742 -62.465 173 175 168
19.133793 -14.209742 -62.668 173 174 167
19.133793 -14.209742 -62.871 173 173 168
19.133793 -14.209742 -63.074 172 172 167
19.133793 -14.209742 -63.276 169 169 165
19.133793 -14.209742 -63.479 170 168 164
19.133793 -14.209742 -63.682 165 165 163
19.133793 -14.209742 -63.885 160 159 155
19.133793 -14.209742 -64.088 151 151 144
19.133793 -14.209742 -64.29 140 139 132
19.133793 -14.209742 -64.493 127 121 114
19.40958 -14.414178 -64.663 101 90 83
19.40958 -14.414178 -64.866 56 40 38
19.40958 -14.414178 -65.474 52 45 45
19.40958 -14.414178 -66.082 67 67 65
19.40958 -14.414178 -66.285 70 70 68
19.40958 -14.414178 -66.488 72 72 70
19.40958 -14.414178 -66.691 73 73 70
19.40958 -14.414178 -66.893 74 74 70
19.288132 -13.405021 0.812 139 139 139
19.288132 -13.405021 0.609 176 176 175
19.288132 -13.405021 0.406 196 194 189
19.288132 -13.405021 0.203 205 204 196
19.57069 -13.601724 -0.203 206 207 199
19.852764 -13.797396 -0.405 208 208 201
19.852764 -13.797396 -0.608 211 211 202
19.852764 -13.797396 -0.811 215 213 205
20.133806 -13.993552 -1.013 220 217 207
20.133806 -13.993552 -1.216 224 223 220
20.41588 -14.189224 -1.418 202 201 201
20.696924 -14.385381 -1.619 128 128 128
20.978512 -14.580023 -1.821 103 97 92
20.978512 -14.580023 -2.023 132 120 107
20.978512 -14.580023 -2.225 138 132 124
20.978512 -14.580023 -2.428 144 137 131
20.978512 -14.580023 -2.63 145 141 137
20.978512 -14.580023 -2.832 147 143 140
20.978512 -14.580023 -3.034 148 145 139
20.978512 -14.580023 -3.237 149 146 140
20.978512 -14.580023 -3.439 149 146 140
20.978512 -14.580023 -3.641 150 145 140
20.978512 -14.580023 -3.844 150 147 141
20.978512 -14.580023 -4.046 150 147 141
20.978512 -14.580023 -4.248 149 144 139
20.978512 -14.580023 -4.451 149 144 139
20.978512 -14.580023 -4.653 147 142 137
20.978512 -14.580023 -4.855 146 143 137
20.978512 -14.580023 -5.057 151 146 139
20.978512 -14.580023 -5.26 153 148 143
20.978512 -14.580023 -5.462 150 149 145
20.978512 -14.580023 -5.664 150 149 145
20.978512 -14.580023 -5.867 149 148 144
20.978512 -14.580023 -6.069 150 146 143
20.978512 -14.580023 -6.271 150 146 143
20.978512 -14.580023 -6.474 150 146 143
20.978512 -14.580023 -6.676 150 146 143
20.978512 -14.580023 -6.878 149 146 143
20.978512 -14.580023 -7.08 149 147 143
20.978512 -14.580023 -7.283 149 146 143
20.978512 -14.580023 -7.485 148 147 143
20.978512 -14.580023 -7.687 147 146 141
20.978512 -14.580023 -7.89 147 146 139
20.978512 -14.580023 -8.092 149 146 140
20.978512 -14.580023 -8.294 150 147 141
20.978512 -14.580023 -8.497 151 148 142
20.978512 -14.580023 -8.699 152 148 145
20.978512 -14.580023 -8.901 153 147 147
20.978512 -14.580023 -9.103 152 147 147
20.978512 -14.580023 -9.306 152 148 147
20.978512 -14.580023 -9.508 151 148 148
20.978512 -14.580023 -9.71 150 149 148
20.978512 -14.580023 -9.913 148 147 145
20.978512 -14.580023 -10.115 146 146 143
20.978512 -14.580023 -10.317 145 145 141
20.978512 -14.580023 -10.52 146 144 139
20.978512 -14.580023 -10.722 146 145 140
20.978512 -14.580023 -10.924 147 146 142
20.978512 -14.580023 -11.126 149 145 142
20.978512 -14.580023 -11.329 148 147 145
20.696924 -14.385381 -12.144 147 147 143
20.696924 -14.385381 -12.549 151 151 146
20.696924 -14.385381 -12.751 153 152 150
20.696924 -14.385381 -12.954 153 153 153
20.696924 -14.385381 -13.156 153 153 153
20.696924 -14.385381 -13.561 154 154 154
20.696924 -14.385381 -13.966 149 151 150
20.696924 -14.385381 -14.168 150 150 150
20.696924 -14.385381 -14.37 151 151 150
20.696924 -14.385381 -14.573 147 148 147
20.696924 -14.385381 -14.775 143 146 145
20.696924 -14.385381 -14.978 144 145 142
20.696924 -14.385381 -15.18 132 131 122
20.696924 -14.385381 -15.382 94 96 95
20.696924 -14.385381 -15.585 120 121 114
20.696924 -14.385381 -15.787 131 131 126
20.696924 -14.385381 -15.99 139 137 134
20.696924 -14.385381 -16.192 144 142 140
20.696924 -14.385381 -16.394 146 146 144
20.696924 -14.385381 -16.597 146 146 146
20.696924 -14.385381 -16.799 147 147 146
20.696924 -14.385381 -17.002 149 149 146
20.696924 -14.385381 -17.204 151 151 149
20.696924 -14.385381 -17.406 152 151 149
20.696924 -14.385381 -17.609 152 151 150
20.696924 -14.385381 -17.811 153 152 149
20.696924 -14.385381 -18.014 153 152 149
20.696924 -14.385381 -18.216 153 152 150
20.696924 -14.385381 -18.418 153 152 150
20.696924 -14.385381 -18.621 153 153 151
20.696924 -14.385381 -18.823 154 154 152
20.41588 -14.189224 -19.035 156 156 155
20.696924 -14.385381 -19.228 157 157 157
20.696924 -14.385381 -19.835 160 161 159
20.696924 -14.385381 -20.038 161 162 160
20.696924 -14.385381 -20.24 161 162 159
20.696924 -14.385381 -20.442 161 161 159
20.696924 -14.385381 -20.645 160 160 159
20.696924 -14.385381 -20.847 159 159 159
20.696924 -14.385381 -21.05 157 158 158
20.696924 -14.385381 -21.252 156 158 158
20.696924 -14.385381 -21.455 155 158 158
20.978512 -14.580023 -21.646 155 159 158
20.978512 -14.580023 -21.848 161 162 162
21.259071 -14.775149 -22.04 158 158 155
21.259071 -14.775149 -22.242 132 131 130
21.539629 -14.970277 -22.433 144 144 141
21.539629 -14.970277 -22.635 164 164 160
21.539629 -14.970277 -22.837 162 165 163
21.539629 -14.970277 -23.039 153 158 158
21.818674 -15.164858 -23.229 153 160 159
22.098747 -15.358954 -23.622 91 91 91
22.098747 -15.358954 -23.823 83 76 72
22.098747 -15.358954 -24.025 108 97 86
22.098747 -15.358954 -24.227 120 107 93
22.098747 -15.358954 -24.429 125 112 97
22.098747 -15.358954 -24.631 128 117 102
22.098747 -15.358954 -24.833 129 120 108
22.098747 -15.358954 -25.035 131 122 110
22.098747 -15.358954 -25.237 133 124 114
22.098747 -15.358954 -25.439 137 126 116
22.098747 -15.358954 -25.64 138 126 119
22.098747 -15.358954 -25.842 139 127 120
22.098747 -15.358954 -26.044 136 128 122
22.098747 -15.358954 -26.246 135 127 121
22.098747 -15.358954 -26.448 133 125 119
22.098747 -15.358954 -26.65 132 124 118
22.098747 -15.358954 -26.852 131 123 117
22.098747 -15.358954 -27.054 133 124 116
22.098747 -15.358954 -27.256 136 126 119
22.098747 -15.358954 -27.457 139 127 119
22.098747 -15.358954 -27.659 139 128 118
22.098747 -15.358954 -27.861 139 128 118
22.098747 -15.358954 -28.063 139 128 118
22.098747 -15.358954 -28.265 139 126 119
22.098747 -15.358954 -28.467 139 126 120
22.098747 -15.358954 -28.669 137 127 122
22.098747 -15.358954 -28.871 138 129 124
22.098747 -15.358954 -29.073 137 129 123
22.098747 -15.358954 -29.275 137 129 121
22.098747 -15.358954 -29.476 136 128 120
22.098747 -15.358954 -29.678 136 128 121
22.098747 -15.358954 -29.88 136 128 121
22.098747 -15.358954 -30.082 137 129 121
22.098747 -15.358954 -30.284 137 130 120
22.098747 -15.358954 -30.486 136 130 120
22.098747 -15.358954 -30.688 135 130 121
22.098747 -15.358954 -30.89 136 129 122
22.098747 -15.358954 -31.092 138 130 124
22.098747 -15.358954 -31.293 139 131 125
22.098747 -15.358954 -31.495 142 132 126
22.098747 -15.358954 -31.697 143 133 127
22.098747 -15.358954 -31.899 141 131 127
22.098747 -15.358954 -32.101 139 129 125
22.098747 -15.358954 -32.303 138 128 125
22.098747 -15.358954 -32.505 136 126 123
22.098747 -15.358954 -32.707 133 125 121
22.098747 -15.358954 -32.909 133 124 121
22.098747 -15.358954 -33.111 134 124 119
22.098747 -15.358954 -33.312 134 125 118
22.098747 -15.358954 -33.514 132 124 116
22.098747 -15.358954 -33.716 132 123 113
22.098747 -15.358954 -33.918 130 122 114
22.098747 -15.358954 -34.12 130 122 114
22.098747 -15.358954 -34.322 130 122 114
22.098747 -15.358954 -34.524 130 122 116
22.098747 -15.358954 -34.726 130 122 116
22.098747 -15.358954 -34.928 131 123 115
22.098747 -15.358954 -35.129 132 124 118
22.098747 -15.358954 -35.533 134 124 117
22.098747 -15.358954 -35.735 134 124 116
22.098747 -15.358954 -35.937 137 126 116
22.098747 -15.358954 -36.139 136 126 119
22.098747 -15.358954 -36.341 138 127 117
22.098747 -15.358954 -36.543 135 126 116
22.098747 -15.358954 -36.745 134 127 116
22.657866 -15.747632 -43.565 133 124 114
21.818674 -15.164858 -43.833 137 129 122
21.818674 -15.164858 -44.035 137 129 123
21.818674 -15.164858 -44.237 137 129 122
21.818674 -15.164858 -44.641 138 129 120
21.818674 -15.164858 -44.843 138 129 119
21.818674 -15.164858 -45.045 136 129 118
21.818674 -15.164858 -45.247 137 128 117
21.818674 -15.164858 -45.449 139 129 115
21.818674 -15.164858 -45.651 139 129 115
21.818674 -15.164858 -45.853 139 128 116
21.818674 -15.164858 -46.055 139 128 116
21.539629 -14.970277 -47.088 140 128 121
21.539629 -14.970277 -47.29 138 128 121
21.539629 -14.970277 -47.493 137 129 121
21.539629 -14.970277 -47.695 136 128 121
21.539629 -14.970277 -47.897 136 128 122
21.539629 -14.970277 -48.099 137 129 121
21.539629 -14.970277 -48.301 137 129 122
21.539629 -14.970277 -48.503 137 129 122
21.539629 -14.970277 -48.705 137 129 121
21.539629 -14.970277 -48.907 138 130 122
21.539629 -14.970277 -49.109 140 131 123
21.539629 -14.970277 -49.311 141 132 124
21.539629 -14.970277 -49.514 141 133 125
21.539629 -14.970277 -49.716 140 132 124
21.539629 -14.970277 -49.918 139 131 122
21.539629 -14.970277 -50.12 139 131 121
21.539629 -14.970277 -50.322 139 131 119
21.539629 -14.970277 -50.524 138 129 119
21.539629 -14.970277 -50.726 139 128 120
21.539629 -14.970277 -50.928 139 128 119
21.539629 -14.970277 -51.13 137 126 118
21.539629 -14.970277 -51.332 135 121 113
21.539629 -14.970277 -51.534 130 117 110
21.539629 -14.970277 -51.737 126 113 103
21.539629 -14.970277 -51.939 117 105 94
21.539629 -14.970277 -52.141 95 85 71
21.259071 -14.775149 -52.369 106 103 95
20.978512 -14.580023 -52.598 132 130 127
20.978512 -14.580023 -52.8 152 152 152
20.696924 -14.385381 -53.029 156 156 156
20.696924 -14.385381 -53.231 146 146 146
20.696924 -14.385381 -53.434 139 138 138
20.41588 -14.189224 -53.663 139 134 134
20.41588 -14.189224 -53.866 130 124 126
20.133806 -13.993552 -54.095 128 128 128
19.852764 -13.797396 -54.325 142 143 142
19.57069 -13.601724 -54.556 149 155 151
19.57069 -13.601724 -54.758 156 162 159
19.57069 -13.601724 -54.961 159 168 162
19.57069 -13.601724 -55.164 166 174 167
19.57069 -13.601724 -55.367 166 174 169
19.57069 -13.601724 -55.57 165 170 166
19.57069 -13.601724 -55.772 163 167 163
19.57069 -13.601724 -55.975 162 162 159
19.57069 -13.601724 -56.178 161 158 152
19.57069 -13.601724 -56.381 158 152 146
19.57069 -13.601724 -56.584 158 153 148
19.57069 -13.601724 -56.787 160 156 152
19.57069 -13.601724 -56.989 160 157 154
19.57069 -13.601724 -57.192 158 157 153
19.57069 -13.601724 -57.395 157 156 152
19.57069 -13.601724 -57.598 155 154 150
19.57069 -13.601724 -57.801 155 155 151
19.57069 -13.601724 -58.003 157 157 153
19.57069 -13.601724 -58.206 159 160 156
19.57069 -13.601724 -58.409 159 162 157
19.57069 -13.601724 -58.612 162 164 159
19.57069 -13.601724 -58.815 165 166 162
19.57069 -13.601724 -59.017 167 167 163
19.57069 -13.601724 -59.22 170 171 167
19.57069 -13.601724 -59.423 174 174 170
19.57069 -13.601724 -59.626 177 178 174
19.57069 -13.601724 -59.829 179 180 175
19.57069 -13.601724 -60.031 177 179 173
19.57069 -13.601724 -60.234 171 175 167
19.57069 -13.601724 -60.437 164 168 163
19.57069 -13.601724 -60.64 162 167 161
19.57069 -13.601724 -60.843 165 168 161
19.57069 -13.601724 -61.046 169 170 164
19.57069 -13.601724 -61.248 172 173 166
19.288132 -13.405021 -61.482 173 174 167
19.288132 -13.405021 -61.685 173 174 170
19.288132 -13.405021 -61.888 175 176 170
19.288132 -13.405021 -62.091 174 176 169
19.288132 -13.405021 -62.294 171 173 166
19.288132 -13.405021 -62.497 167 168 163
19.288132 -13.405021 -62.7 165 165 159
19.288132 -13.405021 -62.902 161 161 154
19.288132 -13.405021 -63.105 157 157 150
19.288132 -13.405021 -63.308 152 152 145
19.288132 -13.405021 -63.511 155 155 148
19.288132 -13.405021 -63.714 154 153 151
19.288132 -13.405021 -63.917 155 154 152
19.57069 -13.601724 -64.088 156 153 148
19.57069 -13.601724 -64.29 148 146 142
19.57069 -13.601724 -64.493 132 128 121
19.57069 -13.601724 -64.696 84 79 71
19.699677 -12.792552 0.812 150 149 149
19.411596 -12.605836 0.609 175 174 173
19.411596 -12.605836 0.406 191 188 184
19.699677 -12.792552 0.203 204 199 193
19.699677 -12.792552 -0.203 213 206 200
19.988274 -12.980282 -0.406 217 212 205
20.276354 -13.166997 -0.811 221 220 213
20.276354 -13.166997 -1.014 222 222 217
21.99923 -14.286313 -1.213 224 223 220
21.99923 -14.286313 -1.415 199 199 199
20.851501 -13.540944 -1.62 134 133 132
21.138567 -13.728177 -1.822 96 91 85
21.42613 -13.9138775 -2.023 120 113 102
21.42613 -13.9138775 -2.225 132 126 120
21.42613 -13.9138775 -2.428 136 132 128
21.42613 -13.9138775 -2.63 141 137 134
21.42613 -13.9138775 -2.832 142 140 138
21.42613 -13.9138775 -3.034 147 143 142
21.42613 -13.9138775 -3.237 149 145 142
21.42613 -13.9138775 -3.439 148 147 145
21.42613 -13.9138775 -3.641 149 148 146
21.42613 -13.9138775 -3.844 150 149 147
21.42613 -13.9138775 -4.046 150 149 147
21.42613 -13.9138775 -4.248 150 149 147
21.42613 -13.9138775 -4.451 149 148 148
21.42613 -13.9138775 -4.653 147 146 144
21.42613 -13.9138775 -4.855 147 146 143
21.138567 -13.728177 -9.715 146 145 143
21.138567 -13.728177 -9.918 146 144 141
21.138567 -13.728177 -10.12 148 145 140
21.138567 -13.728177 -10.322 150 148 144
21.138567 -13.728177 -10.525 150 149 146
21.138567 -13.728177 -10.727 150 150 147
21.138567 -13.728177 -10.93 151 151 149
21.138567 -13.728177 -11.132 151 151 151
21.138567 -13.728177 -11.334 151 151 151
21.138567 -13.728177 -11.537 152 152 152
21.138567 -13.728177 -11.739 152 152 152
21.138567 -13.728177 -11.942 153 152 152
21.138567 -13.728177 -12.144 153 153 153
21.138567 -13.728177 -12.346 154 153 152
21.138567 -13.728177 -12.549 153 153 151
21.138567 -13.728177 -12.751 152 152 149
21.138567 -13.728177 -12.954 148 150 149
21.138567 -13.728177 -13.156 148 149 146
21.99923 -14.286313 -13.338 148 149 147
21.99923 -14.286313 -13.54 150 151 149
21.99923 -14.286313 -13.743 149 150 148
21.138567 -13.728177 -13.966 150 150 149
21.138567 -13.728177 -14.168 150 151 150
21.138567 -13.728177 -14.37 150 151 149
21.138567 -13.728177 -14.573 148 149 147
21.138567 -13.728177 -14.775 147 148 144
21.138567 -13.728177 -14.978 145 146 143
21.138567 -13.728177 -15.18 136 137 133
21.99923 -14.286313 -15.359 89 88 88
21.138567 -13.728177 -15.585 119 121 118
21.99923 -14.286313 -15.763 119 123 122
21.99923 -14.286313 -15.966 128 132 129
21.138567 -13.728177 -16.192 126 128 125
21.138567 -13.728177 -16.394 134 135 135
21.99923 -14.286313 -16.572 144 144 143
21.99923 -14.286313 -16.774 147 147 147
21.99923 -14.286313 -16.976 150 149 149
21.99923 -14.286313 -17.178 152 151 151
21.99923 -14.286313 -17.38 153 152 151
21.99923 -14.286313 -17.582 153 152 150
21.99923 -14.286313 -17.784 153 152 150
21.99923 -14.286313 -17.987 152 152 150
21.99923 -14.286313 -18.189 152 152 150
20.851501 -13.540944 -18.428 153 153 153
20.851501 -13.540944 -18.63 153 154 154
20.851501 -13.540944 -18.833 155 156 156
20.851501 -13.540944 -19.035 158 159 159
20.851501 -13.540944 -19.238 160 161 161
20.851501 -13.540944 -19.44 162 162 162
20.851501 -13.540944 -19.643 163 164 164
20.851501 -13.540944 -19.845 163 164 164
20.851501 -13.540944 -20.048 161 164 163
20.851501 -13.540944 -20.25 158 162 161
20.851501 -13.540944 -20.453 157 161 160
20.851501 -13.540944 -20.655 155 159 158
20.851501 -13.540944 -20.858 152 157 156
20.851501 -13.540944 -21.06 149 155 155
21.138567 -13.728177 -21.252 150 156 155
21.138567 -13.728177 -21.455 151 155 154
21.138567 -13.728177 -21.657 155 156 155
21.42613 -13.9138775 -21.848 153 152 151
21.42613 -13.9138775 -22.051 137 136 135
21.42613 -13.9138775 -22.253 142 142 140
21.712679 -14.100096 -22.444 152 152 152
21.99923 -14.286313 -22.837 158 158 158
21.99923 -14.286313 -23.039 154 157 156
21.99923 -14.286313 -23.241 157 158 158
22.284246 -14.4720335 -23.431 129 129 129
22.57028 -14.657237 -24.227 116 109 98
22.57028 -14.657237 -24.429 120 113 102
22.57028 -14.657237 -25.237 131 122 110
22.57028 -14.657237 -25.439 131 122 112
22.57028 -14.657237 -26.448 130 119 109
22.57028 -14.657237 -26.65 134 123 113
22.57028 -14.657237 -26.852 135 123 117
22.57028 -14.657237 -27.054 135 125 120
22.57028 -14.657237 -27.457 135 128 124
22.57028 -14.657237 -28.467 132 127 120
22.57028 -14.657237 -28.871 133 128 121
22.57028 -14.657237 -29.073 132 127 120
22.284246 -14.4720335 -35.753 135 127 121
22.284246 -14.4720335 -35.955 135 127 121
22.284246 -14.4720335 -36.157 136 128 122
22.284246 -14.4720335 -36.359 136 128 122
22.284246 -14.4720335 -36.561 137 129 123
22.284246 -14.4720335 -36.763 135 130 123
22.284246 -14.4720335 -36.965 135 130 124
22.284246 -14.4720335 -37.167 135 130 124
22.284246 -14.4720335 -37.369 135 130 124
23.141329 -15.028161 -37.716 135 130 123
23.141329 -15.028161 -37.918 135 129 123
23.141329 -15.028161 -38.12 136 128 122
23.141329 -15.028161 -38.321 136 127 122
23.141329 -15.028161 -38.523 136 126 121
23.141329 -15.028161 -38.725 136 126 121
23.141329 -15.028161 -38.926 135 128 121
23.141329 -15.028161 -39.128 134 128 121
23.141329 -15.028161 -39.33 134 128 120
23.141329 -15.028161 -39.531 134 128 121
21.99923 -14.286313 -39.813 130 121 114
21.99923 -14.286313 -40.015 131 120 113
21.99923 -14.286313 -40.217 132 120 113
21.99923 -14.286313 -40.419 133 120 112
21.99923 -14.286313 -40.621 134 122 112
21.99923 -14.286313 -40.823 133 123 115
21.99923 -14.286313 -41.026 134 125 118
21.99923 -14.286313 -41.228 135 127 119
21.99923 -14.286313 -41.43 135 127 119
21.99923 -14.286313 -41.632 135 127 119
21.99923 -14.286313 -41.834 135 127 119
21.99923 -14.286313 -42.036 135 129 120
21.99923 -14.286313 -42.238 137 129 121
21.99923 -14.286313 -42.44 137 129 123
21.99923 -14.286313 -42.642 136 130 124
21.99923 -14.286313 -42.844 136 131 125
21.99923 -14.286313 -43.046 138 131 126
21.99923 -14.286313 -43.249 137 132 127
21.99923 -14.286313 -43.451 137 132 127
21.99923 -14.286313 -43.653 137 132 127
21.99923 -14.286313 -43.855 136 130 128
21.99923 -14.286313 -44.057 137 131 129
21.99923 -14.286313 -44.259 136 130 128
21.99923 -14.286313 -44.461 138 130 125
21.99923 -14.286313 -44.663 138 130 124
21.99923 -14.286313 -44.865 138 130 124
21.99923 -14.286313 -45.067 138 130 124
21.99923 -14.286313 -45.27 137 129 123
21.99923 -14.286313 -45.472 135 130 123
21.99923 -14.286313 -45.674 137 129 123
21.99923 -14.286313 -45.876 137 129 123
21.99923 -14.286313 -46.078 137 129 123
21.99923 -14.286313 -46.28 138 130 124
21.99923 -14.286313 -46.482 138 130 126
21.99923 -14.286313 -46.684 139 131 127
21.99923 -14.286313 -46.886 140 130 126
21.99923 -14.286313 -47.088 142 130 125
21.99923 -14.286313 -47.29 140 130 125
21.99923 -14.286313 -47.493 139 131 124
21.99923 -14.286313 -47.695 139 131 123
21.99923 -14.286313 -47.897 138 130 123
21.99923 -14.286313 -48.099 138 130 122
21.99923 -14.286313 -48.301 138 130 123
21.99923 -14.286313 -48.503 138 130 124
21.99923 -14.286313 -48.705 138 130 125
21.99923 -14.286313 -48.907 139 132 127
21.99923 -14.286313 -49.109 140 136 129
21.712679 -14.100096 -51.763 126 116 110
21.712679 -14.100096 -51.965 120 110 104
21.42613 -13.9138775 -52.193 108 92 91
21.42613 -13.9138775 -52.396 109 105 105
21.138567 -13.728177 -52.624 134 134 134
21.138567 -13.728177 -52.827 154 154 154
21.138567 -13.728177 -53.029 154 154 151
20.851501 -13.540944 -53.258 146 146 142
20.851501 -13.540944 -53.461 138 138 134
20.56342 -13.354229 -53.69 132 130 127
20.56342 -13.354229 -53.893 127 125 121
20.276354 -13.166997 -54.123 138 139 137
20.276354 -13.166997 -54.325 148 149 147
19.988274 -12.980282 -54.556 156 159 159
19.988274 -12.980282 -54.758 163 165 165
19.988274 -12.980282 -54.961 166 171 171
19.988274 -12.980282 -55.164 169 173 172
19.988274 -12.980282 -55.367 170 174 173
19.699677 -12.792552 -56.612 160 160 158
19.699677 -12.792552 -56.815 158 158 157
19.699677 -12.792552 -57.018 157 158 158
19.699677 -12.792552 -57.221 157 158 156
19.699677 -12.792552 -57.424 158 159 156
19.699677 -12.792552 -57.627 159 160 158
19.699677 -12.792552 -57.83 159 160 158
19.699677 -12.792552 -58.033 160 161 159
19.699677 -12.792552 -58.236 162 163 161
19.699677 -12.792552 -58.438 164 165 163
19.699677 -12.792552 -58.641 165 166 164
19.699677 -12.792552 -58.844 165 167 166
19.699677 -12.792552 -59.047 165 170 168
19.699677 -12.792552 -59.25 168 174 170
19.699677 -12.792552 -59.453 170 175 172
19.699677 -12.792552 -59.656 171 175 172
19.699677 -12.792552 -59.859 171 175 172
19.699677 -12.792552 -60.062 171 175 172
19.699677 -12.792552 -60.265 171 173 172
19.699677 -12.792552 -60.468 168 169 169
19.699677 -12.792552 -60.67 164 165 165
19.699677 -12.792552 -60.873 164 165 164
19.699677 -12.792552 -61.076 165 166 166
19.699677 -12.792552 -61.279 166 167 165
19.699677 -12.792552 -61.482 164 168 165
19.699677 -12.792552 -61.685 164 168 165
19.699677 -12.792552 -61.888 163 169 166
19.699677 -12.792552 -62.091 159 163 160
19.699677 -12.792552 -62.294 156 158 154
19.699677 -12.792552 -62.497 150 150 141
19.699677 -12.792552 -62.7 143 142 138
19.699677 -12.792552 -62.902 147 146 144
19.699677 -12.792552 -63.105 150 149 147
19.699677 -12.792552 -63.308 152 152 148
19.699677 -12.792552 -63.511 152 152 148
19.699677 -12.792552 -63.714 153 152 148
19.699677 -12.792552 -63.917 153 152 148
19.699677 -12.792552 -64.12 155 154 150
19.699677 -12.792552 -64.323 149 148 146
19.699677 -12.792552 -64.526 125 120 115
19.699677 -12.792552 -64.729 72 67 65
19.988274 -12.980282 -64.899 12 12 12
19.797976 -11.989883 1.218 136 141 140
19.797976 -11.989883 1.015 141 143 141
19.797976 -11.989883 0.812 155 155 151
19.797976 -11.989883 0.609 171 172 165
19.797976 -11.989883 0.406 185 183 173
19.797976 -11.989883 0.203 196 193 182
20.09178 -12.167458 -0.203 204 199 191
20.09178 -12.167458 -0.406 216 211 204
20.386131 -12.346029 -0.608 223 220 215
20.679934 -12.523604 -0.811 224 223 220
20.679934 -12.523604 -1.014 219 219 216
20.679934 -12.523604 -1.216 222 221 220
20.97274 -12.701727 -1.418 204 203 199
21.266542 -12.879301 -1.62 143 143 140
21.55935 -13.057425 -1.822 103 99 94
21.55935 -13.057425 -2.024 115 113 105
21.852604 -13.234001 -2.225 132 127 120
21.55935 -13.057425 -2.429 135 131 125
21.852604 -13.234001 -2.63 140 135 130
21.852604 -13.234001 -2.832 143 138 133
21.852604 -13.234001 -3.034 145 139 137
21.55935 -13.057425 -3.238 146 140 137
21.852604 -13.234001 -3.439 148 144 141
21.852604 -13.234001 -3.641 150 146 143
21.852604 -13.234001 -4.046 152 151 151
21.55935 -13.057425 -4.25 153 152 152
21.852604 -13.234001 -4.451 150 149 149
21.852604 -13.234001 -4.653 146 145 144
21.852604 -13.234001 -4.855 145 144 142
21.55935 -13.057425 -5.262 150 149 149
21.55935 -13.057425 -5.465 152 151 150
21.55935 -13.057425 -5.667 153 152 152
21.55935 -13.057425 -5.87 153 153 153
21.55935 -13.057425 -6.072 155 155 155
21.55935 -13.057425 -6.274 157 157 157
21.55935 -13.057425 -6.477 157 157 157
21.55935 -13.057425 -6.679 156 157 157
21.55935 -13.057425 -6.882 154 155 155
21.55935 -13.057425 -7.084 153 154 154
21.55935 -13.057425 -7.286 153 153 153
21.55935 -13.057425 -7.489 153 153 153
21.55935 -13.057425 -7.691 153 154 154
21.55935 -13.057425 -7.894 154 154 154
21.55935 -13.057425 -8.096 155 155 155
21.55935 -13.057425 -8.298 154 154 154
21.55935 -13.057425 -8.501 153 152 152
21.55935 -13.057425 -8.703 151 149 148
21.55935 -13.057425 -8.906 149 147 144
21.55935 -13.057425 -9.108 148 145 142
21.55935 -13.057425 -9.31 147 145 143
21.55935 -13.057425 -9.513 147 146 143
21.55935 -13.057425 -9.715 148 147 142
21.55935 -13.057425 -9.918 150 149 145
21.55935 -13.057425 -10.12 151 151 148
21.55935 -13.057425 -10.322 153 152 149
21.55935 -13.057425 -10.525 153 152 150
21.55935 -13.057425 -10.727 153 152 151
21.55935 -13.057425 -10.93 153 152 152
21.55935 -13.057425 -11.132 152 151 151
21.55935 -13.057425 -11.334 151 150 150
21.55935 -13.057425 -11.537 150 150 150
21.55935 -13.057425 -11.739 150 149 149
21.55935 -13.057425 -11.942 148 149 149
21.266542 -12.879301 -12.15 145 147 147
21.55935 -13.057425 -12.346 145 146 146
21.55935 -13.057425 -12.549 143 143 143
22.437119 -13.588251 -12.732 148 149 149
22.437119 -13.588251 -12.934 149 150 150
21.266542 -12.879301 -13.163 154 155 155
22.437119 -13.588251 -13.338 150 147 144
21.55935 -13.057425 -13.561 156 156 156
21.55935 -13.057425 -13.763 154 154 154
21.266542 -12.879301 -13.973 154 154 154
21.266542 -12.879301 -14.175 152 152 154
21.266542 -12.879301 -14.378 153 152 152
21.266542 -12.879301 -14.58 151 151 151
22.437119 -13.588251 -14.753 146 146 144
22.437119 -13.588251 -14.955 142 143 141
21.266542 -12.879301 -15.188 148 148 146
22.437119 -13.588251 -15.359 119 120 118
21.266542 -12.879301 -15.593 143 143 141
22.437119 -13.588251 -15.763 117 113 110
22.437119 -13.588251 -15.966 122 121 119
22.437119 -13.588251 -16.168 129 129 127
22.437119 -13.588251 -16.37 135 136 136
21.266542 -12.879301 -16.605 146 146 144
21.266542 -12.879301 -16.808 150 149 147
21.266542 -12.879301 -17.01 152 151 149
21.266542 -12.879301 -17.213 152 152 152
21.266542 -12.879301 -17.415 152 153 153
21.266542 -12.879301 -17.618 151 152 152
21.266542 -12.879301 -17.82 151 152 151
21.266542 -12.879301 -18.023 151 152 150
21.266542 -12.879301 -18.225 152 152 151
21.266542 -12.879301 -18.428 152 153 153
21.266542 -12.879301 -18.63 154 155 155
21.266542 -12.879301 -18.833 157 157 157
21.266542 -12.879301 -19.035 159 159 159
21.266542 -12.879301 -19.238 160 160 160
21.266542 -12.879301 -19.44 160 161 161
21.266542 -12.879301 -19.643 160 161 161
21.266542 -12.879301 -19.845 160 161 161
21.266542 -12.879301 -20.048 159 160 160
21.266542 -12.879301 -20.25 159 160 160
21.266542 -12.879301 -20.453 157 158 158
21.266542 -12.879301 -20.655 154 155 155
21.266542 -12.879301 -20.858 152 153 153
21.266542 -12.879301 -21.06 151 152 152
21.266542 -12.879301 -21.263 151 152 153
21.55935 -13.057425 -21.455 152 153 153
21.55935 -13.057425 -21.657 152 153 152
21.852604 -13.234001 -21.848 149 148 147
21.852604 -13.234001 -22.051 149 149 145
21.852604 -13.234001 -22.253 153 153 151
22.144861 -13.411126 -22.646 159 160 160
22.144861 -13.411126 -22.848 161 160 160
22.437119 -13.588251 -23.241 165 166 166
22.437119 -13.588251 -23.443 135 132 131
22.727829 -13.764928 -23.633 93 86 85
22.727829 -13.764928 -23.835 106 96 90
22.727829 -13.764928 -28.885 132 128 124
22.727829 -13.764928 -29.087 131 128 121
22.727829 -13.764928 -30.501 131 126 119
22.727829 -13.764928 -30.703 133 128 121
22.727829 -13.764928 -30.905 134 129 122
22.727829 -13.764928 -31.107 135 130 124
22.727829 -13.764928 -31.309 134 130 124
22.727829 -13.764928 -31.511 133 129 122
22.727829 -13.764928 -31.713 133 128 121
22.727829 -13.764928 -31.915 132 127 120
22.727829 -13.764928 -32.117 133 128 119
22.727829 -13.764928 -32.319 130 128 121
22.727829 -13.764928 -32.521 130 128 119
22.727829 -13.764928 -32.723 131 128 120
22.727829 -13.764928 -32.925 130 129 122
22.727829 -13.764928 -33.127 130 130 123
22.727829 -13.764928 -33.329 130 130 123
22.727829 -13.764928 -33.531 131 130 123
22.727829 -13.764928 -33.733 132 129 121
22.727829 -13.764928 -33.935 132 128 120
22.437119 -13.588251 -34.154 132 127 120
22.437119 -13.588251 -34.356 131 126 119
22.437119 -13.588251 -34.558 130 125 118
22.437119 -13.588251 -34.761 130 125 118
22.437119 -13.588251 -34.963 129 124 117
23.601957 -14.293859 -35.094 132 124 118
22.437119 -13.588251 -35.367 129 124 117
22.437119 -13.588251 -35.569 129 124 115
22.437119 -13.588251 -35.771 130 125 116
22.437119 -13.588251 -35.973 133 126 118
22.437119 -13.588251 -36.175 134 129 120
22.437119 -13.588251 -36.377 136 128 120
22.437119 -13.588251 -36.579 137 129 121
22.437119 -13.588251 -36.781 137 129 123
22.437119 -13.588251 -36.984 138 130 124
22.437119 -13.588251 -37.186 138 130 122
22.437119 -13.588251 -37.388 137 129 122
22.437119 -13.588251 -37.59 136 128 122
22.437119 -13.588251 -37.792 136 128 120
22.437119 -13.588251 -37.994 135 127 119
22.437119 -13.588251 -38.196 135 127 119
22.437119 -13.588251 -38.398 133 125 119
22.437119 -13.588251 -38.6 131 123 116
22.437119 -13.588251 -38.802 131 124 117
22.437119 -13.588251 -39.005 130 124 116
22.437119 -13.588251 -39.207 131 123 115
22.437119 -13.588251 -39.409 131 123 115
22.437119 -13.588251 -39.611 131 123 115
22.437119 -13.588251 -39.813 132 123 115
22.437119 -13.588251 -40.015 132 122 116
22.437119 -13.588251 -40.217 133 123 118
22.437119 -13.588251 -40.419 133 123 117
22.437119 -13.588251 -40.621 134 125 118
22.437119 -13.588251 -40.823 135 127 121
22.437119 -13.588251 -41.026 135 127 120
22.437119 -13.588251 -41.228 136 128 120
22.437119 -13.588251 -41.43 137 129 122
22.437119 -13.588251 -41.632 137 129 122
22.437119 -13.588251 -41.834 137 129 121
22.437119 -13.588251 -42.036 138 130 124
22.437119 -13.588251 -42.238 138 130 126
22.437119 -13.588251 -42.44 140 132 128
22.144861 -13.411126 -48.932 137 132 124
22.144861 -13.411126 -49.134 138 132 125
22.144861 -13.411126 -49.336 139 133 126
22.144861 -13.411126 -49.538 138 133 125
22.144861 -13.411126 -49.741 137 132 125
22.144861 -13.411126 -49.943 137 131 124
22.144861 -13.411126 -50.145 136 131 124
22.144861 -13.411126 -50.347 136 130 124
22.144861 -13.411126 -50.549 136 130 124
22.144861 -13.411126 -50.752 136 131 124
22.144861 -13.411126 -50.954 136 131 125
22.144861 -13.411126 -51.156 135 130 124
22.144861 -13.411126 -51.358 134 129 121
23.019537 -13.941055 -51.483 126 119 109
23.019537 -13.941055 -51.685 123 114 106
23.019537 -13.941055 -51.887 106 91 84
21.852604 -13.234001 -52.193 88 84 74
21.852604 -13.234001 -52.396 113 117 114
21.55935 -13.057425 -52.624 137 140 136
21.55935 -13.057425 -52.827 152 156 153
21.266542 -12.879301 -53.056 163 165 161
20.97274 -12.701727 -53.285 150 151 147
20.97274 -12.701727 -53.488 131 130 126
20.679934 -12.523604 -53.717 142 140 134
20.679934 -12.523604 -53.92 142 142 135
20.386131 -12.346029 -54.15 148 152 150
20.386131 -12.346029 -54.353 155 159 158
20.386131 -12.346029 -54.556 162 168 166
20.386131 -12.346029 -54.758 169 174 173
20.09178 -12.167458 -54.989 170 174 175
20.09178 -12.167458 -55.192 170 174 173
20.09178 -12.167458 -55.395 168 172 171
20.09178 -12.167458 -55.598 166 167 167
20.09178 -12.167458 -55.801 163 164 164
20.09178 -12.167458 -56.003 161 160 160
20.09178 -12.167458 -56.206 159 158 157
20.09178 -12.167458 -56.409 157 157 157
20.09178 -12.167458 -56.612 158 159 157
20.09178 -12.167458 -56.815 158 159 156
20.09178 -12.167458 -57.018 159 159 156
20.09178 -12.167458 -57.221 158 158 155
20.09178 -12.167458 -57.424 156 157 152
20.09178 -12.167458 -57.627 156 156 149
20.09178 -12.167458 -57.83 156 156 150
20.09178 -12.167458 -58.033 159 157 153
20.09178 -12.167458 -58.236 162 159 157
20.09178 -12.167458 -58.438 163 163 163
20.09178 -12.167458 -58.641 167 167 167
20.09178 -12.167458 -58.844 169 170 170
20.09178 -12.167458 -59.047 171 174 173
20.09178 -12.167458 -59.25 171 176 174
20.09178 -12.167458 -59.453 173 176 172
20.09178 -12.167458 -59.656 173 174 172
20.09178 -12.167458 -59.859 173 174 171
20.09178 -12.167458 -60.062 172 173 170
20.09178 -12.167458 -60.265 172 173 171
20.09178 -12.167458 -60.468 171 172 170
20.09178 -12.167458 -60.67 168 169 169
20.09178 -12.167458 -60.873 167 168 166
20.09178 -12.167458 -61.076 165 166 164
20.09178 -12.167458 -61.279 164 165 165
20.09178 -12.167458 -61.482 163 163 163
20.09178 -12.167458 -61.685 161 162 162
20.09178 -12.167458 -61.888 161 160 159
20.09178 -12.167458 -62.091 159 159 157
20.09178 -12.167458 -62.294 157 156 153
20.09178 -12.167458 -62.497 155 155 153
20.09178 -12.167458 -62.7 155 154 151
20.09178 -12.167458 -62.902 155 155 151
20.09178 -12.167458 -63.105 155 154 150
20.09178 -12.167458 -63.308 154 153 149
20.09178 -12.167458 -63.511 154 153 149
20.09178 -12.167458 -63.714 154 153 149
20.09178 -12.167458 -63.917 155 153 149
20.09178 -12.167458 -64.12 151 148 142
20.09178 -12.167458 -64.323 140 136 130
20.09178 -12.167458 -64.526 119 109 103
20.09178 -12.167458 -64.729 58 53 52
20.386131 -12.346029 -64.899 4 5 5
20.464054 -11.530355 1.015 132 135 128
19.863443 -11.192459 0.812 155 153 146
19.863443 -11.192459 0.609 176 173 166
19.863443 -11.192459 0.406 194 190 182
20.164818 -11.362098 0.203 204 198 188
20.164818 -11.362098 -0.203 213 210 201
20.464054 -11.530355 -0.406 217 214 206
20.464054 -11.530355 -0.609 224 223 214
20.464054 -11.530355 -0.812 225 225 218
20.76387 -11.699594 -1.014 226 226 220
21.063107 -11.867852 -1.216 227 226 225
21.063107 -11.867852 -1.419 217 217 217
21.361362 -12.03669 -1.621 171 171 171
21.660599 -12.204948 -1.823 110 109 109
21.660599 -12.204948 -2.025 102 93 89
21.958855 -12.373786 -2.226 128 117 113
21.958855 -12.373786 -2.429 135 126 122
21.958855 -12.373786 -3.238 138 133 128
21.958855 -12.373786 -3.441 141 136 132
21.958855 -12.373786 -3.643 143 140 137
21.958855 -12.373786 -3.846 143 142 142
21.958855 -12.373786 -4.048 144 144 144
21.958855 -12.373786 -4.25 147 147 146
21.958855 -12.373786 -4.453 147 147 147
21.958855 -12.373786 -4.655 149 149 149
21.958855 -12.373786 -4.858 150 151 151
21.958855 -12.373786 -5.06 151 152 152
21.958855 -12.373786 -5.262 151 152 152
21.958855 -12.373786 -5.465 153 153 153
21.958855 -12.373786 -5.667 152 153 153
21.958855 -12.373786 -5.87 153 154 154
21.958855 -12.373786 -7.084 151 152 152
22.852863 -12.87678 -7.68 152 153 153
22.852863 -12.87678 -7.882 153 153 154
22.852863 -12.87678 -8.084 153 152 152
21.958855 -12.373786 -8.298 153 154 154
21.958855 -12.373786 -8.501 152 152 152
21.958855 -12.373786 -8.703 151 151 149
21.958855 -12.373786 -8.906 149 149 145
22.852863 -12.87678 -9.094 147 147 144
22.852863 -12.87678 -9.296 145 145 141
22.852863 -12.87678 -9.499 143 143 137
22.852863 -12.87678 -9.701 144 144 138
22.852863 -12.87678 -9.903 147 146 142
22.852863 -12.87678 -10.105 150 149 145
22.852863 -12.87678 -10.307 151 151 147
22.852863 -12.87678 -10.509 151 151 148
22.852863 -12.87678 -10.711 152 151 149
22.852863 -12.87678 -10.913 151 151 150
21.660599 -12.204948 -11.138 151 151 144
21.660599 -12.204948 -11.34 151 150 145
22.852863 -12.87678 -11.519 144 145 146
21.660599 -12.204948 -11.745 152 151 147
21.660599 -12.204948 -11.948 153 153 150
21.660599 -12.204948 -12.15 155 155 153
21.660599 -12.204948 -12.353 156 157 156
21.660599 -12.204948 -12.555 158 159 159
21.660599 -12.204948 -12.758 157 161 162
21.660599 -12.204948 -12.96 159 160 162
21.660599 -12.204948 -13.163 157 160 163
21.660599 -12.204948 -13.365 158 159 161
21.660599 -12.204948 -13.568 157 158 160
21.660599 -12.204948 -13.77 155 156 157
21.660599 -12.204948 -13.973 154 155 155
21.660599 -12.204948 -14.175 154 155 155
21.660599 -12.204948 -14.378 154 155 155
21.660599 -12.204948 -14.58 154 155 155
21.660599 -12.204948 -14.783 155 156 156
21.660599 -12.204948 -14.985 157 157 157
21.660599 -12.204948 -15.188 156 157 157
21.660599 -12.204948 -15.39 155 156 156
21.660599 -12.204948 -15.593 153 154 154
21.660599 -12.204948 -15.795 154 155 155
21.660599 -12.204948 -15.998 152 153 153
21.660599 -12.204948 -16.2 151 151 151
21.660599 -12.204948 -16.403 151 151 151
21.660599 -12.204948 -16.605 152 151 151
21.660599 -12.204948 -16.808 151 150 150
21.660599 -12.204948 -17.01 151 150 150
21.660599 -12.204948 -17.213 151 150 150
21.660599 -12.204948 -17.415 150 149 149
21.660599 -12.204948 -17.618 149 147 148
21.660599 -12.204948 -17.82 150 146 147
21.660599 -12.204948 -18.023 150 146 147
21.660599 -12.204948 -18.225 150 146 147
21.660599 -12.204948 -18.428 149 146 148
21.660599 -12.204948 -18.63 149 149 150
21.660599 -12.204948 -18.833 153 152 152
21.660599 -12.204948 -19.035 155 155 155
21.660599 -12.204948 -19.238 157 157 156
21.660599 -12.204948 -19.44 158 158 157
21.660599 -12.204948 -19.643 158 159 159
21.660599 -12.204948 -19.845 157 160 159
21.660599 -12.204948 -20.048 156 160 159
21.660599 -12.204948 -20.25 157 161 160
21.660599 -12.204948 -20.453 156 160 159
21.660599 -12.204948 -20.655 155 159 158
21.660599 -12.204948 -20.858 152 156 155
21.660599 -12.204948 -21.06 150 155 155
21.660599 -12.204948 -21.263 149 155 155
21.660599 -12.204948 -21.465 150 153 153
21.958855 -12.373786 -21.657 152 152 152
21.958855 -12.373786 -21.859 147 146 145
22.257511 -12.541064 -22.051 147 143 139
22.257511 -12.541064 -22.253 148 150 149
22.257511 -12.541064 -22.455 157 158 157
22.257511 -12.541064 -22.658 162 165 165
22.555187 -12.708921 -23.051 162 164 163
