ply
format ascii 1.0
element vertex 1318
property float x
property float y
property float z
property uchar red
property uchar green
property uchar blue
end_header
-13.415553 54.61917 -63.167 255 0 0
-13.415553 54.61917 -63.36 255 0 0
-13.415553 54.61917 -63.553 255 0 0
-13.415553 54.61917 -63.747 255 0 0
-13.415553 54.61917 -63.94 255 0 0
-13.786518 56.12949 -63.979 255 0 0
-13.786518 56.12949 -64.172 255 0 0
-13.637969 55.52674 -64.427 255 0 0
-13.7127905 55.828274 -64.589 255 0 0
-13.786518 56.12949 -64.75 255 0 0
-13.786518 56.12949 -64.943 255 0 0
-13.861339 56.431026 -65.105 255 0 0
-13.861339 56.431026 -65.297 255 0 0
-13.935066 56.732243 -65.458 255 0 0
-13.935066 56.732243 -65.651 255 0 0
-13.935066 56.732243 -65.843 255 0 0
-14.081745 57.333267 -65.973 255 0 0
-14.081745 57.333267 -66.165 255 0 0
-14.081745 57.333267 -66.358 255 0 0
-14.081745 57.333267 -66.55 255 0 0
-14.081745 57.333267 -66.742 255 0 0
-14.15579 57.633392 -66.903 255 0 0
-14.081745 57.333267 -67.127 255 0 0
-14.081745 57.333267 -67.319 255 0 0
-14.081745 57.333267 -67.512 255 0 0
-14.15579 57.633392 -67.672 255 0 0
-14.15579 57.633392 -67.864 255 0 0
-14.15579 57.633392 -68.056 255 0 0
-14.15579 57.633392 -68.248 255 0 0
-14.597277 59.4274 -68.245 255 0 0
-14.597277 59.4274 -68.437 255 0 0
-14.597277 59.4274 -68.628 255 0 0
-14.230153 57.932423 -68.984 255 0 0
-14.351067 54.703133 -38.423 255 0 0
-14.351067 54.703133 -38.616 255 0 0
-14.271819 54.40171 -38.828 255 0 0
-14.192572 54.100292 -39.039 255 0 0
-14.192572 54.100292 -39.233 255 0 0
-14.192572 54.100292 -39.426 255 0 0
-14.192572 54.100292 -39.619 255 0 0
-14.192572 54.100292 -39.812 255 0 0
-14.192572 54.100292 -40.006 255 0 0
-14.192572 54.100292 -40.199 255 0 0
-14.113625 53.79777 -40.412 255 0 0
-14.113625 53.79777 -40.605 255 0 0
-14.113625 53.79777 -40.798 255 0 0
-14.113625 53.79777 -40.992 255 0 0
-14.113625 53.79777 -41.185 255 0 0
-14.113625 53.79777 -41.378 255 0 0
-14.113625 53.79777 -41.572 255 0 0
-14.113625 53.79777 -41.765 255 0 0
-14.113625 53.79777 -41.959 255 0 0
-14.113625 53.79777 -42.152 255 0 0
-14.113625 53.79777 -42.345 255 0 0
-14.588011 55.605995 -42.416 255 0 0
-14.113625 53.79777 -42.732 255 0 0
-14.113625 53.79777 -42.925 255 0 0
-14.113625 53.79777 -43.119 255 0 0
-14.113625 53.79777 -43.312 255 0 0
-14.113625 53.79777 -43.505 255 0 0
-14.113625 53.79777 -43.699 255 0 0
-14.192572 54.100292 -43.871 255 0 0
-14.192572 54.100292 -44.064 255 0 0
-14.192572 54.100292 -44.258 255 0 0
-14.192572 54.100292 -44.451 255 0 0
-14.192572 54.100292 -44.644 255 0 0
-14.192572 54.100292 -44.837 255 0 0
-14.192572 54.100292 -45.031 255 0 0
-14.113625 53.79777 -45.246 255 0 0
-14.113625 53.79777 -45.439 255 0 0
-14.113625 53.79777 -45.632 255 0 0
-14.192572 54.100292 -45.804 255 0 0
-14.192572 54.100292 -45.997 255 0 0
-14.192572 54.100292 -46.19 255 0 0
-14.192572 54.100292 -46.383 255 0 0
-14.113625 53.79777 -46.599 255 0 0
-14.113625 53.79777 -46.792 255 0 0
-14.113625 53.79777 -46.986 255 0 0
-14.113625 53.79777 -47.179 255 0 0
-14.113625 53.79777 -47.373 255 0 0
-14.113625 53.79777 -47.566 255 0 0
-14.113625 53.79777 -47.759 255 0 0
-14.113625 53.79777 -47.953 255 0 0
-14.113625 53.79777 -48.146 255 0 0
-14.113625 53.79777 -48.339 255 0 0
-14.113625 53.79777 -48.533 255 0 0
-14.113625 53.79777 -48.726 255 0 0
-14.113625 53.79777 -48.919 255 0 0
-14.192572 54.100292 -49.089 255 0 0
-14.192572 54.100292 -49.282 255 0 0
-14.192572 54.100292 -49.476 255 0 0
-14.192572 54.100292 -49.669 255 0 0
-14.192572 54.100292 -49.862 255 0 0
-14.192572 54.100292 -50.055 255 0 0
-14.192572 54.100292 -50.249 255 0 0
-14.113625 53.79777 -50.466 255 0 0
-14.113625 53.79777 -50.66 255 0 0
-14.113625 53.79777 -50.853 255 0 0
-14.113625 53.79777 -51.046 255 0 0
-14.113625 53.79777 -51.24 255 0 0
-14.113625 53.79777 -51.433 255 0 0
-14.113625 53.79777 -51.626 255 0 0
-14.113625 53.79777 -51.82 255 0 0
-14.113625 53.79777 -52.013 255 0 0
-14.113625 53.79777 -52.206 255 0 0
-14.113625 53.79777 -52.4 255 0 0
-14.113625 53.79777 -52.593 255 0 0
-14.192572 54.100292 -52.761 255 0 0
-14.192572 54.100292 -52.954 255 0 0
-14.192572 54.100292 -53.148 255 0 0
-14.113625 53.79777 -53.367 255 0 0
-14.192572 54.100292 -53.534 255 0 0
-14.192572 54.100292 -53.728 255 0 0
-14.192572 54.100292 -53.921 255 0 0
-14.192572 54.100292 -54.114 255 0 0
-14.113625 53.79777 -54.333 255 0 0
-14.113625 53.79777 -54.527 255 0 0
-14.192572 54.100292 -54.694 255 0 0
-14.192572 54.100292 -54.887 255 0 0
-14.192572 54.100292 -55.08 255 0 0
-14.192572 54.100292 -55.274 255 0 0
-14.192572 54.100292 -55.467 255 0 0
-14.192572 54.100292 -55.66 255 0 0
-14.192572 54.100292 -55.853 255 0 0
-14.192572 54.100292 -56.047 255 0 0
-14.192572 54.100292 -56.24 255 0 0
-14.192572 54.100292 -56.433 255 0 0
-14.192572 54.100292 -56.626 255 0 0
-14.192572 54.100292 -56.82 255 0 0
-14.192572 54.100292 -57.013 255 0 0
-14.192572 54.100292 -57.206 255 0 0
-14.192572 54.100292 -57.4 255 0 0
-14.192572 54.100292 -57.593 255 0 0
-14.192572 54.100292 -57.786 255 0 0
-14.192572 54.100292 -57.979 255 0 0
-14.192572 54.100292 -58.173 255 0 0
-14.192572 54.100292 -58.366 255 0 0
-14.192572 54.100292 -58.559 255 0 0
-14.192572 54.100292 -58.752 255 0 0
-14.192572 54.100292 -58.946 255 0 0
-14.192572 54.100292 -59.139 255 0 0
-14.192572 54.100292 -59.332 255 0 0
-14.192572 54.100292 -59.525 255 0 0
-14.113625 53.79777 -59.747 255 0 0
-14.113625 53.79777 -59.941 255 0 0
-14.113625 53.79777 -60.134 255 0 0
-14.113625 53.79777 -60.327 255 0 0
-14.113625 53.79777 -60.521 255 0 0
-14.113625 53.79777 -60.714 255 0 0
-14.113625 53.79777 -60.908 255 0 0
-14.113625 53.79777 -61.101 255 0 0
-14.113625 53.79777 -61.294 255 0 0
-14.113625 53.79777 -61.488 255 0 0
-14.113625 53.79777 -61.681 255 0 0
-14.113625 53.79777 -61.874 255 0 0
-14.113625 53.79777 -62.068 255 0 0
-14.113625 53.79777 -62.261 255 0 0
-14.192572 54.100292 -62.424 255 0 0
-14.113625 53.79777 -62.648 255 0 0
-14.113625 53.79777 -62.841 255 0 0
-14.113625 53.79777 -63.034 255 0 0
-14.113625 53.79777 -63.228 255 0 0
-14.113625 53.79777 -63.421 255 0 0
-14.113625 53.79777 -63.615 255 0 0
-14.113625 53.79777 -63.808 255 0 0
-14.192572 54.100292 -63.971 255 0 0
-14.271819 54.40171 -64.133 255 0 0
-14.351067 54.703133 -64.295 255 0 0
-14.430314 55.004555 -64.457 255 0 0
-14.430314 55.004555 -64.65 255 0 0
-14.508463 55.30567 -64.812 255 0 0
-14.588011 55.605995 -64.974 255 0 0
-14.666461 55.906017 -65.136 255 0 0
-14.666461 55.906017 -65.328 255 0 0
-14.746009 56.20634 -65.49 255 0 0
-14.746009 56.20634 -65.682 255 0 0
-14.746009 56.20634 -65.875 255 0 0
-14.824458 56.506363 -66.036 255 0 0
-14.903209 56.805286 -66.197 255 0 0
-14.903209 56.805286 -66.389 255 0 0
-14.903209 56.805286 -66.582 255 0 0
-14.903209 56.805286 -66.774 255 0 0
-14.98056 57.105007 -66.935 255 0 0
-14.98056 57.105007 -67.127 255 0 0
-14.98056 57.105007 -67.319 255 0 0
-14.98056 57.105007 -67.512 255 0 0
-14.98056 57.105007 -67.704 255 0 0
-14.98056 57.105007 -67.896 255 0 0
-14.98056 57.105007 -68.089 255 0 0
-14.98056 57.105007 -68.281 255 0 0
-14.98056 57.105007 -68.473 255 0 0
-14.98056 57.105007 -68.666 255 0 0
-14.98056 57.105007 -68.858 255 0 0
-15.040591 53.87069 -38.46 255 0 0
-15.124563 54.17083 -38.634 255 0 0
-14.956902 53.569447 -38.865 255 0 0
-14.956902 53.569447 -39.058 255 0 0
-14.956902 53.569447 -39.252 255 0 0
-14.956902 53.569447 -39.445 255 0 0
-14.873213 53.268208 -39.657 255 0 0
-15.459632 55.37 -39.717 255 0 0
-15.459632 55.37 -39.91 255 0 0
-15.459632 55.37 -40.103 255 0 0
-15.459632 55.37 -40.296 255 0 0
-14.873213 53.268208 -40.625 255 0 0
-14.873213 53.268208 -40.818 255 0 0
-14.873213 53.268208 -41.011 255 0 0
-14.873213 53.268208 -41.205 255 0 0
-14.873213 53.268208 -41.398 255 0 0
-14.873213 53.268208 -41.592 255 0 0
-14.873213 53.268208 -41.785 255 0 0
-14.873213 53.268208 -41.979 255 0 0
-14.873213 53.268208 -42.172 255 0 0
-14.873213 53.268208 -42.366 255 0 0
-14.873213 53.268208 -42.559 255 0 0
-14.873213 53.268208 -42.753 255 0 0
-14.873213 53.268208 -42.946 255 0 0
-14.873213 53.268208 -43.139 255 0 0
-14.956902 53.569447 -43.312 255 0 0
-14.956902 53.569447 -43.505 255 0 0
-14.956902 53.569447 -43.699 255 0 0
-14.873213 53.268208 -43.913 255 0 0
-14.873213 53.268208 -44.107 255 0 0
-14.873213 53.268208 -44.3 255 0 0
-14.873213 53.268208 -44.494 255 0 0
-14.873213 53.268208 -44.687 255 0 0
-14.956902 53.569447 -44.859 255 0 0
-14.956902 53.569447 -45.052 255 0 0
-14.956902 53.569447 -45.246 255 0 0
-14.873213 53.268208 -45.461 255 0 0
-14.873213 53.268208 -45.654 255 0 0
-14.873213 53.268208 -45.848 255 0 0
-14.873213 53.268208 -46.041 255 0 0
-14.873213 53.268208 -46.235 255 0 0
-14.873213 53.268208 -46.428 255 0 0
-14.873213 53.268208 -46.622 255 0 0
-14.873213 53.268208 -46.815 255 0 0
-14.873213 53.268208 -47.008 255 0 0
-14.873213 53.268208 -47.202 255 0 0
-14.873213 53.268208 -47.395 255 0 0
-14.873213 53.268208 -47.589 255 0 0
-14.873213 53.268208 -47.782 255 0 0
-14.956902 53.569447 -47.953 255 0 0
-14.956902 53.569447 -48.146 255 0 0
-14.956902 53.569447 -48.339 255 0 0
-14.873213 53.268208 -48.556 255 0 0
-14.873213 53.268208 -48.749 255 0 0
-14.873213 53.268208 -48.943 255 0 0
-14.873213 53.268208 -49.136 255 0 0
-14.873213 53.268208 -49.33 255 0 0
-14.873213 53.268208 -49.523 255 0 0
-14.873213 53.268208 -49.717 255 0 0
-14.956902 53.569447 -49.886 255 0 0
-14.956902 53.569447 -50.08 255 0 0
-14.956902 53.569447 -50.273 255 0 0
-14.956902 53.569447 -50.466 255 0 0
-15.375377 55.07096 -50.538 255 0 0
-15.375377 55.07096 -50.731 255 0 0
-15.375377 55.07096 -50.924 255 0 0
-15.375377 55.07096 -51.117 255 0 0
-14.873213 53.268208 -51.458 255 0 0
-14.873213 53.268208 -51.651 255 0 0
-14.873213 53.268208 -51.845 255 0 0
-14.873213 53.268208 -52.038 255 0 0
-14.956902 53.569447 -52.206 255 0 0
-14.873213 53.268208 -52.425 255 0 0
-14.873213 53.268208 -52.618 255 0 0
-14.873213 53.268208 -52.812 255 0 0
-14.873213 53.268208 -53.005 255 0 0
-14.873213 53.268208 -53.199 255 0 0
-14.956902 53.569447 -53.367 255 0 0
-14.956902 53.569447 -53.56 255 0 0
-14.956902 53.569447 -53.753 255 0 0
-14.956902 53.569447 -53.947 255 0 0
-14.873213 53.268208 -54.166 255 0 0
-14.873213 53.268208 -54.36 255 0 0
-14.873213 53.268208 -54.553 255 0 0
-14.873213 53.268208 -54.746 255 0 0
-14.873213 53.268208 -54.94 255 0 0
-15.459632 55.37 -54.948 255 0 0
-15.459632 55.37 -55.141 255 0 0
-14.956902 53.569447 -55.494 255 0 0
-14.956902 53.569447 -55.687 255 0 0
-14.956902 53.569447 -55.88 255 0 0
-14.873213 53.268208 -56.101 255 0 0
-14.873213 53.268208 -56.294 255 0 0
-14.873213 53.268208 -56.487 255 0 0
-14.956902 53.569447 -56.654 255 0 0
-14.956902 53.569447 -56.847 255 0 0
-14.956902 53.569447 -57.04 255 0 0
-14.956902 53.569447 -57.234 255 0 0
-14.873213 53.268208 -57.455 255 0 0
-14.873213 53.268208 -57.648 255 0 0
-14.873213 53.268208 -57.842 255 0 0
-14.956902 53.569447 -58.007 255 0 0
-14.956902 53.569447 -58.201 255 0 0
-14.956902 53.569447 -58.394 255 0 0
-14.956902 53.569447 -58.587 255 0 0
-14.956902 53.569447 -58.781 255 0 0
-14.873213 53.268208 -59.002 255 0 0
-14.873213 53.268208 -59.196 255 0 0
-14.873213 53.268208 -59.389 255 0 0
-14.873213 53.268208 -59.583 255 0 0
-14.873213 53.268208 -59.776 255 0 0
-14.956902 53.569447 -59.941 255 0 0
-14.956902 53.569447 -60.134 255 0 0
-14.956902 53.569447 -60.327 255 0 0
-14.956902 53.569447 -60.521 255 0 0
-14.873213 53.268208 -60.743 255 0 0
-14.873213 53.268208 -60.937 255 0 0
-14.873213 53.268208 -61.13 255 0 0
-14.873213 53.268208 -61.324 255 0 0
-14.873213 53.268208 -61.517 255 0 0
-14.873213 53.268208 -61.711 255 0 0
-14.873213 53.268208 -61.904 255 0 0
-14.873213 53.268208 -62.098 255 0 0
-14.873213 53.268208 -62.291 255 0 0
-14.873213 53.268208 -62.484 255 0 0
-14.873213 53.268208 -62.678 255 0 0
-14.873213 53.268208 -62.871 255 0 0
-14.873213 53.268208 -63.065 255 0 0
-14.873213 53.268208 -63.258 255 0 0
-14.873213 53.268208 -63.452 255 0 0
-14.873213 53.268208 -63.645 255 0 0
-14.873213 53.268208 -63.839 255 0 0
-15.375377 55.07096 -63.848 255 0 0
-15.375377 55.07096 -64.041 255 0 0
-15.375377 55.07096 -64.234 255 0 0
-15.208535 54.470966 -64.488 255 0 0
-15.292507 54.771107 -64.65 255 0 0
-15.375377 55.07096 -64.812 255 0 0
-15.292507 54.771107 -65.036 255 0 0
-15.459632 55.37 -65.167 255 0 0
-15.459632 55.37 -65.36 255 0 0
-15.459632 55.37 -65.553 255 0 0
-15.542785 55.66875 -65.714 255 0 0
-15.62704 55.967785 -65.875 255 0 0
-15.62704 55.967785 -66.068 255 0 0
-15.62704 55.967785 -66.26 255 0 0
-15.710193 56.26654 -66.421 255 0 0
-15.710193 56.26654 -66.614 255 0 0
-15.710193 56.26654 -66.806 255 0 0
-15.710193 56.26654 -66.999 255 0 0
-15.710193 56.26654 -67.191 255 0 0
-15.710193 56.26654 -67.384 255 0 0
-15.710193 56.26654 -67.576 255 0 0
-15.793629 56.56419 -67.736 255 0 0
-15.793629 56.56419 -67.929 255 0 0
-15.793629 56.56419 -68.121 255 0 0
-15.793629 56.56419 -68.314 255 0 0
-16.291218 58.348137 -68.31 255 0 0
-16.291218 58.348137 -68.502 255 0 0
-15.875678 56.86266 -68.858 255 0 0
-15.796489 53.327908 -38.478 255 0 0
-15.708078 53.028015 -38.69 255 0 0
-15.618561 52.72786 -38.902 255 0 0
-15.53015 52.42797 -39.115 255 0 0
-15.618561 52.72786 -39.289 255 0 0
-15.618561 52.72786 -39.483 255 0 0
-15.618561 52.72786 -39.676 255 0 0
-15.618561 52.72786 -39.87 255 0 0
-15.618561 52.72786 -40.063 255 0 0
-15.618561 52.72786 -40.257 255 0 0
-15.618561 52.72786 -40.451 255 0 0
-15.618561 52.72786 -40.644 255 0 0
-15.618561 52.72786 -40.838 255 0 0
-15.618561 52.72786 -41.031 255 0 0
-15.618561 52.72786 -41.225 255 0 0
-15.618561 52.72786 -41.418 255 0 0
-15.618561 52.72786 -41.612 255 0 0
-15.618561 52.72786 -41.805 255 0 0
-15.618561 52.72786 -41.999 255 0 0
-15.618561 52.72786 -42.192 255 0 0
-15.618561 52.72786 -42.386 255 0 0
-15.618561 52.72786 -42.58 255 0 0
-15.618561 52.72786 -42.773 255 0 0
-15.618561 52.72786 -42.967 255 0 0
-15.618561 52.72786 -43.16 255 0 0
-15.618561 52.72786 -43.354 255 0 0
-15.618561 52.72786 -43.547 255 0 0
-15.618561 52.72786 -43.741 255 0 0
-15.618561 52.72786 -43.934 255 0 0
-15.618561 52.72786 -44.128 255 0 0
-15.53015 52.42797 -44.343 255 0 0
-15.53015 52.42797 -44.536 255 0 0
-15.618561 52.72786 -44.709 255 0 0
-15.618561 52.72786 -44.902 255 0 0
-15.618561 52.72786 -45.096 255 0 0
-15.618561 52.72786 -45.289 255 0 0
-15.618561 52.72786 -45.483 255 0 0
-15.618561 52.72786 -45.676 255 0 0
-15.618561 52.72786 -45.87 255 0 0
-15.618561 52.72786 -46.063 255 0 0
-15.618561 52.72786 -46.257 255 0 0
-15.618561 52.72786 -46.45 255 0 0
-15.618561 52.72786 -46.644 255 0 0
-15.618561 52.72786 -46.837 255 0 0
-15.618561 52.72786 -47.031 255 0 0
-15.618561 52.72786 -47.225 255 0 0
-15.618561 52.72786 -47.418 255 0 0
-15.618561 52.72786 -47.612 255 0 0
-15.618561 52.72786 -47.805 255 0 0
-15.618561 52.72786 -47.999 255 0 0
-15.618561 52.72786 -48.192 255 0 0
-15.618561 52.72786 -48.386 255 0 0
-15.618561 52.72786 -48.579 255 0 0
-15.618561 52.72786 -48.773 255 0 0
-15.618561 52.72786 -48.966 255 0 0
-15.618561 52.72786 -49.16 255 0 0
-15.618561 52.72786 -49.354 255 0 0
-15.618561 52.72786 -49.547 255 0 0
-15.618561 52.72786 -49.741 255 0 0
-15.53015 52.42797 -49.958 255 0 0
-15.53015 52.42797 -50.152 255 0 0
-15.53015 52.42797 -50.345 255 0 0
-15.618561 52.72786 -50.515 255 0 0
-15.618561 52.72786 -50.708 255 0 0
-15.618561 52.72786 -50.902 255 0 0
-15.618561 52.72786 -51.095 255 0 0
-15.618561 52.72786 -51.289 255 0 0
-15.618561 52.72786 -51.483 255 0 0
-15.618561 52.72786 -51.676 255 0 0
-15.618561 52.72786 -51.87 255 0 0
-15.618561 52.72786 -52.063 255 0 0
-15.618561 52.72786 -52.257 255 0 0
-15.618561 52.72786 -52.45 255 0 0
-15.618561 52.72786 -52.644 255 0 0
-15.618561 52.72786 -52.837 255 0 0
-15.618561 52.72786 -53.031 255 0 0
-16.238497 54.822662 -53.046 255 0 0
-15.618561 52.72786 -53.418 255 0 0
-15.618561 52.72786 -53.611 255 0 0
-15.618561 52.72786 -53.805 255 0 0
-15.618561 52.72786 -53.999 255 0 0
-15.618561 52.72786 -54.192 255 0 0
-15.618561 52.72786 -54.386 255 0 0
-15.618561 52.72786 -54.579 255 0 0
-15.618561 52.72786 -54.773 255 0 0
-15.618561 52.72786 -54.966 255 0 0
-15.618561 52.72786 -55.16 255 0 0
-15.618561 52.72786 -55.353 255 0 0
-15.618561 52.72786 -55.547 255 0 0
-15.618561 52.72786 -55.74 255 0 0
-15.618561 52.72786 -55.934 255 0 0
-15.618561 52.72786 -56.128 255 0 0
-15.618561 52.72786 -56.321 255 0 0
-15.53015 52.42797 -56.542 255 0 0
-15.618561 52.72786 -56.708 255 0 0
-15.618561 52.72786 -56.902 255 0 0
-15.618561 52.72786 -57.095 255 0 0
-15.618561 52.72786 -57.289 255 0 0
-15.618561 52.72786 -57.482 255 0 0
-15.618561 52.72786 -57.676 255 0 0
-15.618561 52.72786 -57.869 255 0 0
-15.618561 52.72786 -58.063 255 0 0
-15.618561 52.72786 -58.257 255 0 0
-15.618561 52.72786 -58.45 255 0 0
-15.618561 52.72786 -58.644 255 0 0
-15.618561 52.72786 -58.837 255 0 0
-15.618561 52.72786 -59.031 255 0 0
-15.618561 52.72786 -59.224 255 0 0
-15.618561 52.72786 -59.418 255 0 0
-15.618561 52.72786 -59.611 255 0 0
-15.53015 52.42797 -59.834 255 0 0
-15.53015 52.42797 -60.027 255 0 0
-15.53015 52.42797 -60.221 255 0 0
-15.53015 52.42797 -60.415 255 0 0
-15.53015 52.42797 -60.608 255 0 0
-15.53015 52.42797 -60.802 255 0 0
-15.53015 52.42797 -60.995 255 0 0
-15.618561 52.72786 -61.16 255 0 0
-15.618561 52.72786 -61.353 255 0 0
-15.618561 52.72786 -61.547 255 0 0
-15.618561 52.72786 -61.74 255 0 0
-15.618561 52.72786 -61.934 255 0 0
-15.618561 52.72786 -62.127 255 0 0
-15.618561 52.72786 -62.321 255 0 0
-15.618561 52.72786 -62.514 255 0 0
-15.618561 52.72786 -62.708 255 0 0
-15.618561 52.72786 -62.902 255 0 0
-15.618561 52.72786 -63.095 255 0 0
-15.618561 52.72786 -63.289 255 0 0
-15.618561 52.72786 -63.482 255 0 0
-15.618561 52.72786 -63.676 255 0 0
-15.618561 52.72786 -63.869 255 0 0
-15.708078 53.028015 -64.032 255 0 0
-15.708078 53.028015 -64.225 255 0 0
-15.796489 53.327908 -64.388 255 0 0
-15.884899 53.627796 -64.55 255 0 0
-15.884899 53.627796 -64.744 255 0 0
-16.062252 54.22536 -64.875 255 0 0
-16.062252 54.22536 -65.068 255 0 0
-16.062252 54.22536 -65.261 255 0 0
-16.150928 54.524143 -65.422 255 0 0
-16.238497 54.822662 -65.584 255 0 0
-16.238497 54.822662 -65.777 255 0 0
-16.238497 54.822662 -65.97 255 0 0
-16.327438 55.12034 -66.131 255 0 0
-16.415274 55.417747 -66.292 255 0 0
-16.415274 55.417747 -66.485 255 0 0
-16.504215 55.715424 -66.645 255 0 0
-16.504215 55.715424 -66.838 255 0 0
-16.504215 55.715424 -67.031 255 0 0
-16.504215 55.715424 -67.223 255 0 0
-16.504215 55.715424 -67.416 255 0 0
-16.504215 55.715424 -67.609 255 0 0
-16.504215 55.715424 -67.801 255 0 0
-16.59205 56.012833 -67.961 255 0 0
-16.59205 56.012833 -68.154 255 0 0
-16.59205 56.012833 -68.346 255 0 0
-16.59205 56.012833 -68.539 255 0 0
-16.59205 56.012833 -68.731 255 0 0
-16.59205 56.012833 -68.924 255 0 0
-16.63218 53.073208 -38.478 255 0 0
-16.539068 52.774742 -38.69 255 0 0
-16.444847 52.476032 -38.902 255 0 0
-16.444847 52.476032 -39.096 255 0 0
-16.444847 52.476032 -39.289 255 0 0
-16.444847 52.476032 -39.483 255 0 0
-16.444847 52.476032 -39.676 255 0 0
-16.444847 52.476032 -39.87 255 0 0
-16.351738 52.177567 -40.083 255 0 0
-16.351738 52.177567 -40.276 255 0 0
-16.351738 52.177567 -40.47 255 0 0
-16.351738 52.177567 -40.664 255 0 0
-16.444847 52.476032 -40.838 255 0 0
-16.444847 52.476032 -41.031 255 0 0
-16.444847 52.476032 -41.225 255 0 0
-16.351738 52.177567 -41.438 255 0 0
-16.351738 52.177567 -41.632 255 0 0
-16.444847 52.476032 -41.805 255 0 0
-16.351738 52.177567 -42.019 255 0 0
-16.444847 52.476032 -42.192 255 0 0
-16.444847 52.476032 -42.386 255 0 0
-16.444847 52.476032 -42.58 255 0 0
-16.351738 52.177567 -42.794 255 0 0
-16.444847 52.476032 -42.967 255 0 0
-16.444847 52.476032 -43.16 255 0 0
-16.444847 52.476032 -43.354 255 0 0
-16.444847 52.476032 -43.547 255 0 0
-16.444847 52.476032 -43.741 255 0 0
-16.444847 52.476032 -43.934 255 0 0
-16.444847 52.476032 -44.128 255 0 0
-16.444847 52.476032 -44.321 255 0 0
-16.444847 52.476032 -44.515 255 0 0
-16.351738 52.177567 -44.73 255 0 0
-16.351738 52.177567 -44.924 255 0 0
-16.351738 52.177567 -45.117 255 0 0
-16.351738 52.177567 -45.311 255 0 0
-16.351738 52.177567 -45.505 255 0 0
-16.351738 52.177567 -45.698 255 0 0
-16.351738 52.177567 -45.892 255 0 0
-16.444847 52.476032 -46.063 255 0 0
-16.351738 52.177567 -46.279 255 0 0
-16.351738 52.177567 -46.473 255 0 0
-16.351738 52.177567 -46.666 255 0 0
-17.005363 54.26373 -46.703 255 0 0
-17.005363 54.26373 -46.896 255 0 0
-17.005363 54.26373 -47.089 255 0 0
-17.005363 54.26373 -47.282 255 0 0
-16.351738 52.177567 -47.635 255 0 0
-16.351738 52.177567 -47.828 255 0 0
-16.351738 52.177567 -48.022 255 0 0
-16.351738 52.177567 -48.215 255 0 0
-16.351738 52.177567 -48.409 255 0 0
-16.351738 52.177567 -48.603 255 0 0
-16.351738 52.177567 -48.796 255 0 0
-17.005363 54.26373 -48.826 255 0 0
-17.005363 54.26373 -49.019 255 0 0
-17.005363 54.26373 -49.212 255 0 0
-17.005363 54.26373 -49.405 255 0 0
-16.351738 52.177567 -49.765 255 0 0
-16.444847 52.476032 -49.934 255 0 0
-16.444847 52.476032 -50.128 255 0 0
-16.444847 52.476032 -50.321 255 0 0
-16.444847 52.476032 -50.515 255 0 0
-16.444847 52.476032 -50.708 255 0 0
-16.444847 52.476032 -50.902 255 0 0
-16.444847 52.476032 -51.095 255 0 0
-16.444847 52.476032 -51.289 255 0 0
-16.444847 52.476032 -51.483 255 0 0
-16.444847 52.476032 -51.676 255 0 0
-16.444847 52.476032 -51.87 255 0 0
-16.444847 52.476032 -52.063 255 0 0
-16.444847 52.476032 -52.257 255 0 0
-16.444847 52.476032 -52.45 255 0 0
-16.444847 52.476032 -52.644 255 0 0
-16.444847 52.476032 -52.837 255 0 0
-16.444847 52.476032 -53.031 255 0 0
-16.444847 52.476032 -53.224 255 0 0
-16.444847 52.476032 -53.418 255 0 0
-16.444847 52.476032 -53.611 255 0 0
-16.444847 52.476032 -53.805 255 0 0
-16.351738 52.177567 -54.025 255 0 0
-16.351738 52.177567 -54.218 255 0 0
-16.351738 52.177567 -54.412 255 0 0
-16.351738 52.177567 -54.605 255 0 0
-16.351738 52.177567 -54.799 255 0 0
-16.444847 52.476032 -54.966 255 0 0
-16.444847 52.476032 -55.16 255 0 0
-16.351738 52.177567 -55.38 255 0 0
-16.351738 52.177567 -55.574 255 0 0
-16.351738 52.177567 -55.767 255 0 0
-16.257517 51.878853 -55.988 255 0 0
-16.257517 51.878853 -56.182 255 0 0
-16.257517 51.878853 -56.375 255 0 0
-16.257517 51.878853 -56.569 255 0 0
-16.257517 51.878853 -56.763 255 0 0
-16.351738 52.177567 -56.929 255 0 0
-16.351738 52.177567 -57.123 255 0 0
-16.351738 52.177567 -57.316 255 0 0
-16.351738 52.177567 -57.51 255 0 0
-16.351738 52.177567 -57.704 255 0 0
-16.351738 52.177567 -57.897 255 0 0
-16.351738 52.177567 -58.091 255 0 0
-16.351738 52.177567 -58.285 255 0 0
-16.351738 52.177567 -58.478 255 0 0
-16.351738 52.177567 -58.672 255 0 0
-16.351738 52.177567 -58.865 255 0 0
-16.351738 52.177567 -59.059 255 0 0
-16.351738 52.177567 -59.253 255 0 0
-16.351738 52.177567 -59.446 255 0 0
-16.351738 52.177567 -59.64 255 0 0
-16.351738 52.177567 -59.834 255 0 0
-16.351738 52.177567 -60.027 255 0 0
-16.351738 52.177567 -60.221 255 0 0
-16.444847 52.476032 -60.386 255 0 0
-16.444847 52.476032 -60.579 255 0 0
-16.351738 52.177567 -60.802 255 0 0
-16.351738 52.177567 -60.995 255 0 0
-16.351738 52.177567 -61.189 255 0 0
-16.351738 52.177567 -61.383 255 0 0
-16.351738 52.177567 -61.576 255 0 0
-16.351738 52.177567 -61.77 255 0 0
-16.351738 52.177567 -61.964 255 0 0
-16.351738 52.177567 -62.157 255 0 0
-16.351738 52.177567 -62.351 255 0 0
-16.351738 52.177567 -62.545 255 0 0
-16.351738 52.177567 -62.738 255 0 0
-16.351738 52.177567 -62.932 255 0 0
-16.351738 52.177567 -63.125 255 0 0
-16.351738 52.177567 -63.319 255 0 0
-16.351738 52.177567 -63.513 255 0 0
-16.351738 52.177567 -63.706 255 0 0
-16.444847 52.476032 -63.869 255 0 0
-16.444847 52.476032 -64.063 255 0 0
-16.539068 52.774742 -64.225 255 0 0
-16.539068 52.774742 -64.419 255 0 0
-16.63218 53.073208 -64.581 255 0 0
-16.725288 53.37167 -64.744 255 0 0
-16.818647 53.669025 -64.906 255 0 0
-16.912004 53.966377 -65.068 255 0 0
-17.005363 54.26373 -65.229 255 0 0
-16.912004 53.966377 -65.454 255 0 0
-17.005363 54.26373 -65.615 255 0 0
-17.09761 54.560837 -65.777 255 0 0
-17.191217 54.85708 -65.938 255 0 0
-17.09761 54.560837 -66.163 255 0 0
-17.191217 54.85708 -66.324 255 0 0
-17.283712 55.15307 -66.485 255 0 0
-17.283712 55.15307 -66.677 255 0 0
-17.283712 55.15307 -66.87 255 0 0
-17.283712 55.15307 -67.063 255 0 0
-17.283712 55.15307 -67.256 255 0 0
-17.283712 55.15307 -67.448 255 0 0
-17.283712 55.15307 -67.641 255 0 0
-17.283712 55.15307 -67.834 255 0 0
-17.283712 55.15307 -68.026 255 0 0
-17.283712 55.15307 -68.219 255 0 0
-17.283712 55.15307 -68.412 255 0 0
-17.37732 55.449314 -68.572 255 0 0
-17.931313 57.219223 -68.567 255 0 0
-17.469816 55.745304 -68.924 255 0 0
-17.463764 52.805412 -38.478 255 0 0
-17.56155 53.10238 -38.653 255 0 0
-17.267076 52.211254 -38.902 255 0 0
-17.267076 52.211254 -39.096 255 0 0
-17.16929 51.914288 -39.308 255 0 0
-17.16929 51.914288 -39.502 255 0 0
-17.16929 51.914288 -39.695 255 0 0
-17.16929 51.914288 -39.889 255 0 0
-17.16929 51.914288 -40.083 255 0 0
-17.16929 51.914288 -40.276 255 0 0
-17.16929 51.914288 -40.47 255 0 0
-17.16929 51.914288 -40.664 255 0 0
-17.16929 51.914288 -40.857 255 0 0
-17.16929 51.914288 -41.051 255 0 0
-17.16929 51.914288 -41.245 255 0 0
-17.16929 51.914288 -41.438 255 0 0
-17.16929 51.914288 -41.632 255 0 0
-17.16929 51.914288 -41.825 255 0 0
-17.16929 51.914288 -42.019 255 0 0
-17.16929 51.914288 -42.213 255 0 0
-17.16929 51.914288 -42.406 255 0 0
-17.16929 51.914288 -42.6 255 0 0
-17.16929 51.914288 -42.794 255 0 0
-17.16929 51.914288 -42.987 255 0 0
-17.16929 51.914288 -43.181 255 0 0
-17.16929 51.914288 -43.375 255 0 0
-17.16929 51.914288 -43.568 255 0 0
-17.16929 51.914288 -43.762 255 0 0
-17.16929 51.914288 -43.955 255 0 0
-17.16929 51.914288 -44.149 255 0 0
-17.16929 51.914288 -44.343 255 0 0
-17.16929 51.914288 -44.536 255 0 0
-17.16929 51.914288 -44.73 255 0 0
-17.16929 51.914288 -44.924 255 0 0
-17.16929 51.914288 -45.117 255 0 0
-17.16929 51.914288 -45.311 255 0 0
-17.16929 51.914288 -45.505 255 0 0
-17.16929 51.914288 -45.698 255 0 0
-17.16929 51.914288 -45.892 255 0 0
-17.16929 51.914288 -46.085 255 0 0
-17.16929 51.914288 -46.279 255 0 0
-17.16929 51.914288 -46.473 255 0 0
-17.16929 51.914288 -46.666 255 0 0
-17.16929 51.914288 -46.86 255 0 0
-17.16929 51.914288 -47.054 255 0 0
-17.16929 51.914288 -47.247 255 0 0
-17.16929 51.914288 -47.441 255 0 0
-17.16929 51.914288 -47.635 255 0 0
-17.16929 51.914288 -47.828 255 0 0
-17.16929 51.914288 -48.022 255 0 0
-17.16929 51.914288 -48.215 255 0 0
-17.16929 51.914288 -48.409 255 0 0
-17.16929 51.914288 -48.603 255 0 0
-17.16929 51.914288 -48.796 255 0 0
-17.16929 51.914288 -48.99 255 0 0
-17.16929 51.914288 -49.184 255 0 0
-17.16929 51.914288 -49.377 255 0 0
-17.16929 51.914288 -49.571 255 0 0
-17.16929 51.914288 -49.765 255 0 0
-17.16929 51.914288 -49.958 255 0 0
-17.16929 51.914288 -50.152 255 0 0
-17.16929 51.914288 -50.345 255 0 0
-17.16929 51.914288 -50.539 255 0 0
-17.16929 51.914288 -50.733 255 0 0
-17.16929 51.914288 -50.926 255 0 0
-17.16929 51.914288 -51.12 255 0 0
-17.16929 51.914288 -51.314 255 0 0
-17.16929 51.914288 -51.507 255 0 0
-17.16929 51.914288 -51.701 255 0 0
-17.16929 51.914288 -51.895 255 0 0
-17.16929 51.914288 -52.088 255 0 0
-17.16929 51.914288 -52.282 255 0 0
-17.16929 51.914288 -52.475 255 0 0
-17.16929 51.914288 -52.669 255 0 0
-17.16929 51.914288 -52.863 255 0 0
-17.16929 51.914288 -53.056 255 0 0
-17.16929 51.914288 -53.25 255 0 0
-17.16929 51.914288 -53.444 255 0 0
-17.16929 51.914288 -53.637 255 0 0
-17.16929 51.914288 -53.831 255 0 0
-17.16929 51.914288 -54.025 255 0 0
-17.16929 51.914288 -54.218 255 0 0
-17.16929 51.914288 -54.412 255 0 0
-17.16929 51.914288 -54.605 255 0 0
-17.16929 51.914288 -54.799 255 0 0
-17.16929 51.914288 -54.993 255 0 0
-17.16929 51.914288 -55.186 255 0 0
-17.16929 51.914288 -55.38 255 0 0
-17.16929 51.914288 -55.574 255 0 0
-17.16929 51.914288 -55.767 255 0 0
-17.16929 51.914288 -55.961 255 0 0
-17.16929 51.914288 -56.155 255 0 0
-17.16929 51.914288 -56.348 255 0 0
-17.16929 51.914288 -56.542 255 0 0
-17.16929 51.914288 -56.735 255 0 0
-17.16929 51.914288 -56.929 255 0 0
-17.16929 51.914288 -57.123 255 0 0
-17.16929 51.914288 -57.316 255 0 0
-17.16929 51.914288 -57.51 255 0 0
-17.16929 51.914288 -57.704 255 0 0
-17.16929 51.914288 -57.897 255 0 0
-17.16929 51.914288 -58.091 255 0 0
-17.16929 51.914288 -58.285 255 0 0
-17.16929 51.914288 -58.478 255 0 0
-17.16929 51.914288 -58.672 255 0 0
-17.16929 51.914288 -58.865 255 0 0
-17.16929 51.914288 -59.059 255 0 0
-17.16929 51.914288 -59.253 255 0 0
-17.16929 51.914288 -59.446 255 0 0
-17.16929 51.914288 -59.64 255 0 0
-17.16929 51.914288 -59.834 255 0 0
-17.16929 51.914288 -60.027 255 0 0
-17.16929 51.914288 -60.221 255 0 0
-17.16929 51.914288 -60.415 255 0 0
-17.16929 51.914288 -60.608 255 0 0
-17.16929 51.914288 -60.802 255 0 0
-17.070389 51.617092 -61.025 255 0 0
-17.070389 51.617092 -61.219 255 0 0
-17.070389 51.617092 -61.412 255 0 0
-17.070389 51.617092 -61.606 255 0 0
-17.070389 51.617092 -61.8 255 0 0
-17.070389 51.617092 -61.993 255 0 0
-17.16929 51.914288 -62.157 255 0 0
-17.070389 51.617092 -62.381 255 0 0
-17.16929 51.914288 -62.545 255 0 0
-17.16929 51.914288 -62.738 255 0 0
-17.16929 51.914288 -62.932 255 0 0
-17.16929 51.914288 -63.125 255 0 0
-17.16929 51.914288 -63.319 255 0 0
-17.16929 51.914288 -63.513 255 0 0
-17.16929 51.914288 -63.706 255 0 0
-17.659569 53.398228 -63.747 255 0 0
-17.659569 53.398228 -63.94 255 0 0
-17.56155 53.10238 -64.164 255 0 0
-17.56155 53.10238 -64.357 255 0 0
-17.56155 53.10238 -64.55 255 0 0
-17.659569 53.398228 -64.713 255 0 0
-17.757586 53.694077 -64.875 255 0 0
-17.855604 53.989925 -65.036 255 0 0
-17.757586 53.694077 -65.261 255 0 0
-17.757586 53.694077 -65.454 255 0 0
-17.952505 54.285545 -65.584 255 0 0
-17.855604 53.989925 -65.808 255 0 0
-18.050755 54.58028 -65.938 255 0 0
-18.050755 54.58028 -66.131 255 0 0
-18.147888 54.874786 -66.292 255 0 0
-18.050755 54.58028 -66.517 255 0 0
-18.050755 54.58028 -66.709 255 0 0
-18.147888 54.874786 -66.87 255 0 0
-18.147888 54.874786 -67.063 255 0 0
-18.147888 54.874786 -67.256 255 0 0
-18.147888 54.874786 -67.448 255 0 0
-18.147888 54.874786 -67.641 255 0 0
-18.147888 54.874786 -67.834 255 0 0
-18.147888 54.874786 -68.026 255 0 0
-18.147888 54.874786 -68.219 255 0 0
-18.147888 54.874786 -68.412 255 0 0
-18.147888 54.874786 -68.604 255 0 0
-18.147888 54.874786 -68.797 255 0 0
-18.147888 54.874786 -68.99 255 0 0
-18.188602 52.2292 -38.497 255 0 0
-18.085045 51.933594 -38.709 255 0 0
-18.085045 51.933594 -38.902 255 0 0
-17.982605 51.6382 -39.115 255 0 0
-17.982605 51.6382 -39.308 255 0 0
-17.775705 51.04587 -39.54 255 0 0
-17.982605 51.6382 -39.695 255 0 0
-17.982605 51.6382 -39.889 255 0 0
-17.87905 51.342594 -40.102 255 0 0
-17.87905 51.342594 -40.296 255 0 0
-17.87905 51.342594 -40.489 255 0 0
-17.87905 51.342594 -40.683 255 0 0
-17.87905 51.342594 -40.877 255 0 0
-17.87905 51.342594 -41.071 255 0 0
-17.87905 51.342594 -41.264 255 0 0
-17.87905 51.342594 -41.458 255 0 0
-17.87905 51.342594 -41.652 255 0 0
-17.87905 51.342594 -41.846 255 0 0
-17.87905 51.342594 -42.039 255 0 0
-17.87905 51.342594 -42.233 255 0 0
-17.87905 51.342594 -42.427 255 0 0
-17.87905 51.342594 -42.621 255 0 0
-17.87905 51.342594 -42.814 255 0 0
-17.87905 51.342594 -43.008 255 0 0
-17.87905 51.342594 -43.202 255 0 0
-17.87905 51.342594 -43.395 255 0 0
-17.87905 51.342594 -43.589 255 0 0
-17.87905 51.342594 -43.783 255 0 0
-17.87905 51.342594 -43.977 255 0 0
-17.87905 51.342594 -44.17 255 0 0
-17.87905 51.342594 -44.364 255 0 0
-17.87905 51.342594 -44.558 255 0 0
-17.87905 51.342594 -44.752 255 0 0
-17.87905 51.342594 -44.945 255 0 0
-17.87905 51.342594 -45.139 255 0 0
-17.87905 51.342594 -45.333 255 0 0
-17.87905 51.342594 -45.526 255 0 0
-17.87905 51.342594 -45.72 255 0 0
-17.87905 51.342594 -45.914 255 0 0
-17.87905 51.342594 -46.108 255 0 0
-17.87905 51.342594 -46.301 255 0 0
-17.87905 51.342594 -46.495 255 0 0
-17.87905 51.342594 -46.689 255 0 0
-17.87905 51.342594 -46.883 255 0 0
-17.87905 51.342594 -47.076 255 0 0
-17.87905 51.342594 -47.27 255 0 0
-17.87905 51.342594 -47.464 255 0 0
-17.87905 51.342594 -47.657 255 0 0
-17.87905 51.342594 -47.851 255 0 0
-17.87905 51.342594 -48.045 255 0 0
-17.87905 51.342594 -48.239 255 0 0
-17.87905 51.342594 -48.432 255 0 0
-17.87905 51.342594 -48.626 255 0 0
-17.87905 51.342594 -48.82 255 0 0
-17.87905 51.342594 -49.014 255 0 0
-17.87905 51.342594 -49.207 255 0 0
-17.87905 51.342594 -49.401 255 0 0
-17.87905 51.342594 -49.595 255 0 0
-17.87905 51.342594 -49.789 255 0 0
-17.87905 51.342594 -49.982 255 0 0
-17.87905 51.342594 -50.176 255 0 0
-18.496132 53.114254 -50.225 255 0 0
-18.496132 53.114254 -50.418 255 0 0
-18.496132 53.114254 -50.611 255 0 0
-18.496132 53.114254 -50.804 255 0 0
-18.496132 53.114254 -50.997 255 0 0
-18.496132 53.114254 -51.191 255 0 0
-18.496132 53.114254 -51.384 255 0 0
-18.496132 53.114254 -51.577 255 0 0
-18.496132 53.114254 -51.77 255 0 0
-17.87905 51.342594 -52.113 255 0 0
-17.87905 51.342594 -52.307 255 0 0
-17.87905 51.342594 -52.501 255 0 0
-17.87905 51.342594 -52.694 255 0 0
-17.87905 51.342594 -52.888 255 0 0
-17.87905 51.342594 -53.082 255 0 0
-17.87905 51.342594 -53.276 255 0 0
-17.87905 51.342594 -53.469 255 0 0
-17.87905 51.342594 -53.663 255 0 0
-17.87905 51.342594 -53.857 255 0 0
-17.87905 51.342594 -54.051 255 0 0
-17.87905 51.342594 -54.244 255 0 0
-17.87905 51.342594 -54.438 255 0 0
-17.87905 51.342594 -54.632 255 0 0
-17.982605 51.6382 -54.799 255 0 0
-17.982605 51.6382 -54.993 255 0 0
-17.982605 51.6382 -55.186 255 0 0
-17.982605 51.6382 -55.38 255 0 0
-17.982605 51.6382 -55.574 255 0 0
-17.982605 51.6382 -55.767 255 0 0
-17.982605 51.6382 -55.961 255 0 0
-17.87905 51.342594 -56.182 255 0 0
-17.87905 51.342594 -56.375 255 0 0
-17.982605 51.6382 -56.542 255 0 0
-17.982605 51.6382 -56.735 255 0 0
-17.982605 51.6382 -56.929 255 0 0
-17.982605 51.6382 -57.123 255 0 0
-17.982605 51.6382 -57.316 255 0 0
-17.982605 51.6382 -57.51 255 0 0
-17.982605 51.6382 -57.704 255 0 0
-17.982605 51.6382 -57.897 255 0 0
-17.87905 51.342594 -58.119 255 0 0
-17.87905 51.342594 -58.313 255 0 0
-17.87905 51.342594 -58.506 255 0 0
-17.87905 51.342594 -58.7 255 0 0
-17.87905 51.342594 -58.894 255 0 0
-17.87905 51.342594 -59.088 255 0 0
-17.87905 51.342594 -59.281 255 0 0
-17.87905 51.342594 -59.475 255 0 0
-17.87905 51.342594 -59.669 255 0 0
-17.87905 51.342594 -59.862 255 0 0
-17.87905 51.342594 -60.056 255 0 0
-17.87905 51.342594 -60.25 255 0 0
-17.87905 51.342594 -60.444 255 0 0
-17.87905 51.342594 -60.637 255 0 0
-17.87905 51.342594 -60.831 255 0 0
-17.87905 51.342594 -61.025 255 0 0
-17.87905 51.342594 -61.219 255 0 0
-17.87905 51.342594 -61.412 255 0 0
-17.87905 51.342594 -61.606 255 0 0
-17.87905 51.342594 -61.8 255 0 0
-17.87905 51.342594 -61.993 255 0 0
-17.87905 51.342594 -62.187 255 0 0
-17.87905 51.342594 -62.381 255 0 0
-17.87905 51.342594 -62.575 255 0 0
-17.87905 51.342594 -62.768 255 0 0
-17.87905 51.342594 -62.962 255 0 0
-17.87905 51.342594 -63.156 255 0 0
-17.87905 51.342594 -63.35 255 0 0
-17.87905 51.342594 -63.543 255 0 0
-17.87905 51.342594 -63.737 255 0 0
-18.085045 51.933594 -63.869 255 0 0
-18.39348 52.81998 -63.971 255 0 0
-18.29104 52.52459 -64.195 255 0 0
-18.39348 52.81998 -64.357 255 0 0
-18.39348 52.81998 -64.55 255 0 0
-18.39348 52.81998 -64.744 255 0 0
-18.39348 52.81998 -64.937 255 0 0
-18.598785 53.408527 -65.068 255 0 0
-18.598785 53.408527 -65.261 255 0 0
-18.598785 53.408527 -65.454 255 0 0
-18.598785 53.408527 -65.647 255 0 0
-18.80297 53.996864 -65.777 255 0 0
-18.701437 53.702805 -66.001 255 0 0
-18.80297 53.996864 -66.163 255 0 0
-18.80297 53.996864 -66.356 255 0 0
-19.007584 54.582962 -66.485 255 0 0
-18.905838 54.29002 -66.709 255 0 0
-19.007584 54.582962 -66.87 255 0 0
-18.905838 54.29002 -67.095 255 0 0
-18.905838 54.29002 -67.288 255 0 0
-18.905838 54.29002 -67.481 255 0 0
-18.905838 54.29002 -67.673 255 0 0
-18.905838 54.29002 -67.866 255 0 0
-19.007584 54.582962 -68.026 255 0 0
-19.007584 54.582962 -68.219 255 0 0
-19.007584 54.582962 -68.412 255 0 0
-19.007584 54.582962 -68.604 255 0 0
-19.007584 54.582962 -68.797 255 0 0
-19.007584 54.582962 -68.99 255 0 0
-18.898552 51.643116 -38.515 255 0 0
-18.683298 51.055428 -38.746 255 0 0
-18.683298 51.055428 -38.94 255 0 0
-18.683298 51.055428 -39.133 255 0 0
-18.575306 50.760365 -39.346 255 0 0
-18.575306 50.760365 -39.54 255 0 0
-18.575306 50.760365 -39.734 255 0 0
-19.220871 52.52455 -39.812 255 0 0
-19.220871 52.52455 -40.006 255 0 0
-19.220871 52.52455 -40.199 255 0 0
-19.220871 52.52455 -40.392 255 0 0
-19.220871 52.52455 -40.586 255 0 0
-19.220871 52.52455 -40.779 255 0 0
-19.220871 52.52455 -40.972 255 0 0
-18.575306 50.760365 -41.284 255 0 0
-18.575306 50.760365 -41.478 255 0 0
-18.575306 50.760365 -41.672 255 0 0
-18.575306 50.760365 -41.866 255 0 0
-18.575306 50.760365 -42.06 255 0 0
-18.575306 50.760365 -42.253 255 0 0
-18.575306 50.760365 -42.447 255 0 0
-18.575306 50.760365 -42.641 255 0 0
-18.575306 50.760365 -42.835 255 0 0
-18.575306 50.760365 -43.029 255 0 0
-18.575306 50.760365 -43.223 255 0 0
-18.575306 50.760365 -43.416 255 0 0
-18.575306 50.760365 -43.61 255 0 0
-18.575306 50.760365 -43.804 255 0 0
-18.575306 50.760365 -43.998 255 0 0
-18.575306 50.760365 -44.192 255 0 0
-18.575306 50.760365 -44.385 255 0 0
-18.575306 50.760365 -44.579 255 0 0
-18.575306 50.760365 -44.773 255 0 0
-18.575306 50.760365 -44.967 255 0 0
-18.575306 50.760365 -45.161 255 0 0
-18.575306 50.760365 -45.355 255 0 0
-18.575306 50.760365 -45.548 255 0 0
-18.575306 50.760365 -45.742 255 0 0
-18.575306 50.760365 -45.936 255 0 0
-18.575306 50.760365 -46.13 255 0 0
-18.575306 50.760365 -46.324 255 0 0
-18.575306 50.760365 -46.518 255 0 0
-18.575306 50.760365 -46.711 255 0 0
-18.575306 50.760365 -46.905 255 0 0
-18.575306 50.760365 -47.099 255 0 0
-18.575306 50.760365 -47.293 255 0 0
-18.575306 50.760365 -47.487 255 0 0
-18.575306 50.760365 -47.68 255 0 0
-18.575306 50.760365 -47.874 255 0 0
-18.575306 50.760365 -48.068 255 0 0
-18.575306 50.760365 -48.262 255 0 0
-18.575306 50.760365 -48.456 255 0 0
-18.575306 50.760365 -48.65 255 0 0
-18.575306 50.760365 -48.843 255 0 0
-18.575306 50.760365 -49.037 255 0 0
-18.575306 50.760365 -49.231 255 0 0
-18.575306 50.760365 -49.425 255 0 0
-18.575306 50.760365 -49.619 255 0 0
-18.575306 50.760365 -49.812 255 0 0
-18.575306 50.760365 -50.006 255 0 0
-18.575306 50.760365 -50.2 255 0 0
-18.575306 50.760365 -50.394 255 0 0
-18.575306 50.760365 -50.588 255 0 0
-18.575306 50.760365 -50.782 255 0 0
-18.575306 50.760365 -50.975 255 0 0
-18.575306 50.760365 -51.169 255 0 0
-18.575306 50.760365 -51.363 255 0 0
-18.575306 50.760365 -51.557 255 0 0
-18.575306 50.760365 -51.751 255 0 0
-18.575306 50.760365 -51.945 255 0 0
-18.575306 50.760365 -52.138 255 0 0
-18.575306 50.760365 -52.332 255 0 0
-18.575306 50.760365 -52.526 255 0 0
-18.575306 50.760365 -52.72 255 0 0
-18.575306 50.760365 -52.914 255 0 0
-18.575306 50.760365 -53.107 255 0 0
-18.575306 50.760365 -53.301 255 0 0
-18.575306 50.760365 -53.495 255 0 0
-18.575306 50.760365 -53.689 255 0 0
-18.575306 50.760365 -53.883 255 0 0
-18.575306 50.760365 -54.077 255 0 0
-18.575306 50.760365 -54.27 255 0 0
-18.575306 50.760365 -54.464 255 0 0
-18.575306 50.760365 -54.658 255 0 0
-18.575306 50.760365 -54.852 255 0 0
-18.575306 50.760365 -55.046 255 0 0
-18.575306 50.760365 -55.24 255 0 0
-18.575306 50.760365 -55.433 255 0 0
-18.575306 50.760365 -55.627 255 0 0
-18.575306 50.760365 -55.821 255 0 0
-18.575306 50.760365 -56.015 255 0 0
-18.575306 50.760365 -56.209 255 0 0
-18.575306 50.760365 -56.402 255 0 0
-18.575306 50.760365 -56.596 255 0 0
-18.575306 50.760365 -56.79 255 0 0
-18.575306 50.760365 -56.984 255 0 0
-18.575306 50.760365 -57.178 255 0 0
-18.575306 50.760365 -57.372 255 0 0
-18.575306 50.760365 -57.565 255 0 0
-18.575306 50.760365 -57.759 255 0 0
-18.575306 50.760365 -57.953 255 0 0
-18.575306 50.760365 -58.147 255 0 0
-18.575306 50.760365 -58.341 255 0 0
-18.575306 50.760365 -58.535 255 0 0
-18.575306 50.760365 -58.728 255 0 0
-18.575306 50.760365 -58.922 255 0 0
-18.575306 50.760365 -59.116 255 0 0
-18.575306 50.760365 -59.31 255 0 0
-18.575306 50.760365 -59.504 255 0 0
-18.575306 50.760365 -59.697 255 0 0
-18.575306 50.760365 -59.891 255 0 0
-18.575306 50.760365 -60.085 255 0 0
-18.575306 50.760365 -60.279 255 0 0
-18.575306 50.760365 -60.473 255 0 0
-18.575306 50.760365 -60.667 255 0 0
-18.575306 50.760365 -60.86 255 0 0
-18.575306 50.760365 -61.054 255 0 0
-18.575306 50.760365 -61.248 255 0 0
-18.575306 50.760365 -61.442 255 0 0
-18.575306 50.760365 -61.636 255 0 0
-18.575306 50.760365 -61.83 255 0 0
-18.575306 50.760365 -62.023 255 0 0
-18.575306 50.760365 -62.217 255 0 0
-18.575306 50.760365 -62.411 255 0 0
-18.575306 50.760365 -62.605 255 0 0
-18.575306 50.760365 -62.799 255 0 0
-18.575306 50.760365 -62.992 255 0 0
-18.575306 50.760365 -63.186 255 0 0
-18.575306 50.760365 -63.38 255 0 0
-18.683298 51.055428 -63.543 255 0 0
-18.683298 51.055428 -63.737 255 0 0
-18.683298 51.055428 -63.931 255 0 0
-18.791485 51.34937 -64.094 255 0 0
-18.898552 51.643116 -64.256 255 0 0
-19.006739 51.93706 -64.419 255 0 0
-19.006739 51.93706 -64.612 255 0 0
-19.006739 51.93706 -64.806 255 0 0
-19.113806 52.23081 -64.968 255 0 0
-19.220871 52.52455 -65.13 255 0 0
-19.220871 52.52455 -65.323 255 0 0
-19.435396 53.109802 -65.454 255 0 0
-19.328133 52.817177 -65.678 255 0 0
-19.435396 53.109802 -65.84 255 0 0
-19.435396 53.109802 -66.033 255 0 0
-19.542658 53.402428 -66.194 255 0 0
-19.542658 53.402428 -66.387 255 0 0
-19.648798 53.69486 -66.548 255 0 0
-19.648798 53.69486 -66.741 255 0 0
-19.648798 53.69486 -66.934 255 0 0
-19.648798 53.69486 -67.127 255 0 0
-19.648798 53.69486 -67.32 255 0 0
-19.648798 53.69486 -67.513 255 0 0
-19.648798 53.69486 -67.706 255 0 0
-19.648798 53.69486 -67.899 255 0 0
-19.648798 53.69486 -68.092 255 0 0
-19.648798 53.69486 -68.284 255 0 0
-19.648798 53.69486 -68.477 255 0 0
-19.648798 53.69486 -68.67 255 0 0
-19.756256 53.986362 -68.83 255 0 0
-19.86259 54.277668 -68.99 255 0 0
-19.595728 51.04787 -38.534 255 0 0
-19.482937 50.755665 -38.746 255 0 0
-19.820187 51.632107 -38.884 255 0 0
-19.370323 50.462334 -39.152 255 0 0
-19.25771 50.169003 -39.365 255 0 0
-19.25771 50.169003 -39.559 255 0 0
-19.25771 50.169003 -39.753 255 0 0
-19.25771 50.169003 -39.947 255 0 0
-19.25771 50.169003 -40.141 255 0 0
-19.25771 50.169003 -40.335 255 0 0
-19.25771 50.169003 -40.529 255 0 0
-19.25771 50.169003 -40.722 255 0 0
-19.25771 50.169003 -40.916 255 0 0
-19.25771 50.169003 -41.11 255 0 0
-19.25771 50.169003 -41.304 255 0 0
-19.25771 50.169003 -41.498 255 0 0
-19.25771 50.169003 -41.692 255 0 0
-19.25771 50.169003 -41.886 255 0 0
-19.25771 50.169003 -42.08 255 0 0
-19.25771 50.169003 -42.274 255 0 0
-19.25771 50.169003 -42.468 255 0 0
-19.25771 50.169003 -42.662 255 0 0
-19.25771 50.169003 -42.856 255 0 0
-19.25771 50.169003 -43.049 255 0 0
-19.25771 50.169003 -43.243 255 0 0
-19.25771 50.169003 -43.437 255 0 0
-19.25771 50.169003 -43.631 255 0 0
-19.25771 50.169003 -43.825 255 0 0
-19.25771 50.169003 -44.019 255 0 0
-19.25771 50.169003 -44.213 255 0 0
-19.25771 50.169003 -44.407 255 0 0
-19.25771 50.169003 -44.601 255 0 0
-19.25771 50.169003 -44.795 255 0 0
-19.25771 50.169003 -44.989 255 0 0
-19.25771 50.169003 -45.183 255 0 0
-19.25771 50.169003 -45.376 255 0 0
-19.25771 50.169003 -45.57 255 0 0
-19.25771 50.169003 -45.764 255 0 0
-19.25771 50.169003 -45.958 255 0 0
-19.25771 50.169003 -46.152 255 0 0
-19.25771 50.169003 -46.346 255 0 0
-19.25771 50.169003 -46.54 255 0 0
-19.25771 50.169003 -46.734 255 0 0
-19.25771 50.169003 -46.928 255 0 0
-19.25771 50.169003 -47.122 255 0 0
-19.25771 50.169003 -47.316 255 0 0
-19.25771 50.169003 -47.51 255 0 0
-19.25771 50.169003 -47.703 255 0 0
-19.25771 50.169003 -47.897 255 0 0
-19.25771 50.169003 -48.091 255 0 0
-19.25771 50.169003 -48.285 255 0 0
-19.25771 50.169003 -48.479 255 0 0
-19.25771 50.169003 -48.673 255 0 0
-19.25771 50.169003 -48.867 255 0 0
-19.25771 50.169003 -49.061 255 0 0
-19.25771 50.169003 -49.255 255 0 0
-19.25771 50.169003 -49.449 255 0 0
-19.25771 50.169003 -49.643 255 0 0
-19.25771 50.169003 -49.836 255 0 0
-19.25771 50.169003 -50.03 255 0 0
-19.25771 50.169003 -50.224 255 0 0
-19.25771 50.169003 -50.418 255 0 0
-19.25771 50.169003 -50.612 255 0 0
-19.25771 50.169003 -50.806 255 0 0
-19.25771 50.169003 -51.0 255 0 0
-19.25771 50.169003 -51.194 255 0 0
-19.25771 50.169003 -51.388 255 0 0
-19.25771 50.169003 -51.582 255 0 0
-19.25771 50.169003 -51.776 255 0 0
-19.25771 50.169003 -51.97 255 0 0
-19.25771 50.169003 -52.163 255 0 0
-19.25771 50.169003 -52.357 255 0 0
-19.25771 50.169003 -52.551 255 0 0
-19.25771 50.169003 -52.745 255 0 0
-19.25771 50.169003 -52.939 255 0 0
-19.25771 50.169003 -53.133 255 0 0
-19.25771 50.169003 -53.327 255 0 0
-19.25771 50.169003 -53.521 255 0 0
-19.25771 50.169003 -53.715 255 0 0
-19.25771 50.169003 -53.909 255 0 0
-19.25771 50.169003 -54.103 255 0 0
-19.25771 50.169003 -54.297 255 0 0
-19.25771 50.169003 -54.49 255 0 0
-19.25771 50.169003 -54.684 255 0 0
-19.25771 50.169003 -54.878 255 0 0
-19.25771 50.169003 -55.072 255 0 0
-19.25771 50.169003 -55.266 255 0 0
-19.25771 50.169003 -55.46 255 0 0
-19.25771 50.169003 -55.654 255 0 0
-19.25771 50.169003 -55.848 255 0 0
-19.25771 50.169003 -56.042 255 0 0
-19.25771 50.169003 -56.236 255 0 0
-19.25771 50.169003 -56.43 255 0 0
-19.25771 50.169003 -56.624 255 0 0
-19.25771 50.169003 -56.817 255 0 0
-19.820187 51.632107 -56.874 255 0 0
-19.25771 50.169003 -57.205 255 0 0
-19.25771 50.169003 -57.399 255 0 0
-19.25771 50.169003 -57.593 255 0 0
-19.25771 50.169003 -57.787 255 0 0
-19.25771 50.169003 -57.981 255 0 0
-19.370323 50.462334 -58.147 255 0 0
-19.370323 50.462334 -58.341 255 0 0
-19.370323 50.462334 -58.535 255 0 0
-19.25771 50.169003 -58.757 255 0 0
-19.25771 50.169003 -58.951 255 0 0
-19.25771 50.169003 -59.144 255 0 0
-19.25771 50.169003 -59.338 255 0 0
-19.25771 50.169003 -59.532 255 0 0
-19.25771 50.169003 -59.726 255 0 0
-19.25771 50.169003 -59.92 255 0 0
-19.25771 50.169003 -60.114 255 0 0
-19.25771 50.169003 -60.308 255 0 0
-19.25771 50.169003 -60.502 255 0 0
-19.25771 50.169003 -60.696 255 0 0
-19.25771 50.169003 -60.89 255 0 0
-19.25771 50.169003 -61.084 255 0 0
-19.25771 50.169003 -61.278 255 0 0
-19.25771 50.169003 -61.471 255 0 0
-19.25771 50.169003 -61.665 255 0 0
-19.25771 50.169003 -61.859 255 0 0
-19.25771 50.169003 -62.053 255 0 0
-19.25771 50.169003 -62.247 255 0 0
-19.25771 50.169003 -62.441 255 0 0
-19.25771 50.169003 -62.635 255 0 0
-19.25771 50.169003 -62.829 255 0 0
-19.25771 50.169003 -63.023 255 0 0
-19.370323 50.462334 -63.186 255 0 0
-19.25771 50.169003 -63.411 255 0 0
-19.370323 50.462334 -63.574 255 0 0
-19.820187 51.632107 -63.645 255 0 0
-19.707394 51.3399 -63.869 255 0 0
-19.707394 51.3399 -64.063 255 0 0
-19.595728 51.04787 -64.287 255 0 0
-19.707394 51.3399 -64.45 255 0 0
-19.820187 51.632107 -64.612 255 0 0
-19.820187 51.632107 -64.806 255 0 0
-19.820187 51.632107 -64.999 255 0 0
-19.931852 51.924137 -65.161 255 0 0
-20.04352 52.216164 -65.323 255 0 0
-20.04352 52.216164 -65.517 255 0 0
-20.04352 52.216164 -65.71 255 0 0
-20.155365 52.50707 -65.872 255 0 0
-20.155365 52.50707 -66.065 255 0 0
-20.26721 52.797974 -66.226 255 0 0
-20.26721 52.797974 -66.419 255 0 0
-20.26721 52.797974 -66.612 255 0 0
-20.379055 53.08888 -66.773 255 0 0
-20.379055 53.08888 -66.966 255 0 0
-20.379055 53.08888 -67.159 255 0 0
-20.379055 53.08888 -67.352 255 0 0
-20.93562 54.53837 -67.384 255 0 0
-21.046696 54.826843 -67.544 255 0 0
-21.046696 54.826843 -67.736 255 0 0
-21.046696 54.826843 -67.929 255 0 0
-21.046696 54.826843 -68.121 255 0 0
-20.489777 53.379604 -68.477 255 0 0
-20.489777 53.379604 -68.67 255 0 0
-20.489777 53.379604 -68.863 255 0 0
-20.277767 50.44338 -38.552 255 0 0
-20.511375 51.024017 -38.709 255 0 0
-20.043354 49.860325 -38.977 255 0 0
-19.926147 49.5688 -39.19 255 0 0
-20.043354 49.860325 -39.365 255 0 0
-20.043354 49.860325 -39.559 255 0 0
