ply
format ascii 1.0
element vertex 1355
property float x
property float y
property float z
property uchar red
property uchar green
property uchar blue
end_header
25.215897 31.815216 -38.971 255 0 0
25.012669 31.558426 -39.189 255 0 0
25.012669 31.558426 -39.386 255 0 0
25.012669 31.558426 -39.584 255 0 0
25.012669 31.558426 -39.782 255 0 0
25.012669 31.558426 -39.98 255 0 0
25.012669 31.558426 -40.178 255 0 0
25.012669 31.558426 -40.376 255 0 0
25.012669 31.558426 -40.574 255 0 0
25.012669 31.558426 -40.772 255 0 0
25.012669 31.558426 -40.97 255 0 0
25.012669 31.558426 -41.168 255 0 0
25.012669 31.558426 -41.366 255 0 0
25.012669 31.558426 -41.564 255 0 0
25.012669 31.558426 -41.761 255 0 0
25.012669 31.558426 -41.959 255 0 0
25.012669 31.558426 -42.157 255 0 0
25.012669 31.558426 -42.355 255 0 0
25.012669 31.558426 -42.553 255 0 0
25.012669 31.558426 -42.751 255 0 0
25.012669 31.558426 -42.949 255 0 0
25.012669 31.558426 -43.147 255 0 0
25.012669 31.558426 -43.345 255 0 0
25.012669 31.558426 -43.543 255 0 0
25.012669 31.558426 -43.741 255 0 0
25.012669 31.558426 -43.939 255 0 0
25.012669 31.558426 -44.137 255 0 0
25.012669 31.558426 -44.334 255 0 0
25.012669 31.558426 -44.532 255 0 0
25.012669 31.558426 -44.73 255 0 0
25.012669 31.558426 -44.928 255 0 0
25.012669 31.558426 -45.126 255 0 0
25.012669 31.558426 -45.324 255 0 0
25.012669 31.558426 -45.522 255 0 0
25.012669 31.558426 -45.72 255 0 0
25.012669 31.558426 -45.918 255 0 0
25.012669 31.558426 -46.116 255 0 0
25.012669 31.558426 -46.314 255 0 0
25.012669 31.558426 -46.512 255 0 0
25.012669 31.558426 -46.71 255 0 0
25.012669 31.558426 -46.907 255 0 0
25.012669 31.558426 -47.105 255 0 0
25.012669 31.558426 -47.303 255 0 0
25.012669 31.558426 -47.501 255 0 0
25.012669 31.558426 -47.699 255 0 0
25.012669 31.558426 -47.897 255 0 0
25.012669 31.558426 -48.095 255 0 0
25.012669 31.558426 -48.293 255 0 0
25.012669 31.558426 -48.491 255 0 0
25.012669 31.558426 -48.689 255 0 0
25.012669 31.558426 -48.887 255 0 0
25.012669 31.558426 -49.085 255 0 0
25.012669 31.558426 -49.283 255 0 0
25.012669 31.558426 -49.48 255 0 0
25.012669 31.558426 -49.678 255 0 0
25.012669 31.558426 -49.876 255 0 0
25.012669 31.558426 -50.074 255 0 0
25.012669 31.558426 -50.272 255 0 0
25.012669 31.558426 -50.47 255 0 0
25.012669 31.558426 -50.668 255 0 0
25.012669 31.558426 -50.866 255 0 0
25.012669 31.558426 -51.064 255 0 0
25.012669 31.558426 -51.262 255 0 0
25.012669 31.558426 -51.46 255 0 0
25.012669 31.558426 -51.658 255 0 0
25.012669 31.558426 -51.855 255 0 0
25.012669 31.558426 -52.053 255 0 0
25.012669 31.558426 -52.251 255 0 0
25.012669 31.558426 -52.449 255 0 0
25.012669 31.558426 -52.647 255 0 0
25.012669 31.558426 -52.845 255 0 0
25.012669 31.558426 -53.043 255 0 0
25.012669 31.558426 -53.241 255 0 0
25.012669 31.558426 -53.439 255 0 0
25.012669 31.558426 -53.637 255 0 0
25.012669 31.558426 -53.835 255 0 0
25.012669 31.558426 -54.033 255 0 0
25.012669 31.558426 -54.231 255 0 0
25.012669 31.558426 -54.428 255 0 0
25.012669 31.558426 -54.626 255 0 0
25.012669 31.558426 -54.824 255 0 0
25.012669 31.558426 -55.022 255 0 0
25.012669 31.558426 -55.22 255 0 0
25.012669 31.558426 -55.418 255 0 0
25.012669 31.558426 -55.616 255 0 0
25.012669 31.558426 -55.814 255 0 0
25.012669 31.558426 -56.012 255 0 0
25.012669 31.558426 -56.21 255 0 0
25.012669 31.558426 -56.408 255 0 0
25.012669 31.558426 -56.606 255 0 0
25.012669 31.558426 -56.804 255 0 0
25.012669 31.558426 -57.001 255 0 0
25.012669 31.558426 -57.199 255 0 0
25.012669 31.558426 -57.397 255 0 0
25.012669 31.558426 -57.595 255 0 0
25.012669 31.558426 -57.793 255 0 0
25.012669 31.558426 -57.991 255 0 0
25.012669 31.558426 -58.189 255 0 0
25.012669 31.558426 -58.387 255 0 0
25.012669 31.558426 -58.585 255 0 0
25.012669 31.558426 -58.783 255 0 0
25.012669 31.558426 -58.981 255 0 0
25.012669 31.558426 -59.179 255 0 0
25.012669 31.558426 -59.377 255 0 0
25.012669 31.558426 -59.574 255 0 0
25.012669 31.558426 -59.772 255 0 0
25.012669 31.558426 -59.97 255 0 0
25.012669 31.558426 -60.168 255 0 0
25.012669 31.558426 -60.366 255 0 0
25.012669 31.558426 -60.564 255 0 0
25.012669 31.558426 -60.762 255 0 0
25.012669 31.558426 -60.96 255 0 0
25.012669 31.558426 -61.158 255 0 0
25.012669 31.558426 -61.356 255 0 0
25.012669 31.558426 -61.554 255 0 0
25.012669 31.558426 -61.752 255 0 0
25.012669 31.558426 -61.949 255 0 0
25.012669 31.558426 -62.147 255 0 0
25.012669 31.558426 -62.345 255 0 0
25.012669 31.558426 -62.543 255 0 0
25.012669 31.558426 -62.741 255 0 0
25.012669 31.558426 -62.939 255 0 0
25.012669 31.558426 -63.137 255 0 0
25.012669 31.558426 -63.335 255 0 0
25.012669 31.558426 -63.533 255 0 0
25.215897 31.815216 -63.699 255 0 0
25.215897 31.815216 -63.897 255 0 0
25.419544 32.07095 -64.064 255 0 0
25.419544 32.07095 -64.261 255 0 0
26.431013 33.348156 -64.301 255 0 0
25.824305 32.582634 -64.593 255 0 0
26.026894 32.837948 -64.759 255 0 0
26.229483 33.09326 -64.925 255 0 0
26.229483 33.09326 -65.122 255 0 0
26.229483 33.09326 -65.319 255 0 0
26.229483 33.09326 -65.517 255 0 0
26.431013 33.348156 -65.682 255 0 0
27.236916 34.3652 -65.75 255 0 0
26.431013 33.348156 -66.076 255 0 0
26.431013 33.348156 -66.274 255 0 0
26.632963 33.601994 -66.438 255 0 0
26.632963 33.601994 -66.635 255 0 0
26.431013 33.348156 -66.865 255 0 0
26.632963 33.601994 -67.03 255 0 0
26.632963 33.601994 -67.227 255 0 0
26.632963 33.601994 -67.424 255 0 0
26.632963 33.601994 -67.621 255 0 0
26.632963 33.601994 -67.818 255 0 0
26.632963 33.601994 -68.015 255 0 0
26.834494 33.856888 -68.179 255 0 0
27.036444 34.11072 -68.343 255 0 0
27.036444 34.11072 -68.54 255 0 0
27.236916 34.3652 -68.703 255 0 0
24.965246 32.01228 -38.774 255 0 0
25.166878 32.269604 -38.952 255 0 0
24.76404 31.753899 -39.189 255 0 0
24.76404 31.753899 -39.386 255 0 0
24.76404 31.753899 -39.584 255 0 0
24.562834 31.49552 -39.802 255 0 0
24.562834 31.49552 -40.0 255 0 0
24.562834 31.49552 -40.198 255 0 0
24.562834 31.49552 -40.396 255 0 0
24.76404 31.753899 -40.574 255 0 0
24.76404 31.753899 -40.772 255 0 0
24.76404 31.753899 -40.97 255 0 0
24.76404 31.753899 -41.168 255 0 0
24.76404 31.753899 -41.366 255 0 0
24.76404 31.753899 -41.564 255 0 0
24.562834 31.49552 -41.782 255 0 0
24.562834 31.49552 -41.98 255 0 0
24.562834 31.49552 -42.178 255 0 0
24.562834 31.49552 -42.376 255 0 0
24.76404 31.753899 -42.553 255 0 0
24.76404 31.753899 -42.751 255 0 0
24.76404 31.753899 -42.949 255 0 0
24.76404 31.753899 -43.147 255 0 0
24.76404 31.753899 -43.345 255 0 0
24.76404 31.753899 -43.543 255 0 0
24.76404 31.753899 -43.741 255 0 0
24.76404 31.753899 -43.939 255 0 0
24.965246 32.01228 -44.115 255 0 0
24.965246 32.01228 -44.313 255 0 0
24.965246 32.01228 -44.51 255 0 0
24.76404 31.753899 -44.73 255 0 0
24.76404 31.753899 -44.928 255 0 0
24.965246 32.01228 -45.104 255 0 0
24.76404 31.753899 -45.324 255 0 0
24.965246 32.01228 -45.5 255 0 0
24.965246 32.01228 -45.697 255 0 0
24.965246 32.01228 -45.895 255 0 0
24.965246 32.01228 -46.093 255 0 0
24.965246 32.01228 -46.291 255 0 0
24.965246 32.01228 -46.489 255 0 0
24.76404 31.753899 -46.71 255 0 0
24.76404 31.753899 -46.907 255 0 0
24.76404 31.753899 -47.105 255 0 0
24.76404 31.753899 -47.303 255 0 0
24.76404 31.753899 -47.501 255 0 0
24.76404 31.753899 -47.699 255 0 0
24.76404 31.753899 -47.897 255 0 0
24.76404 31.753899 -48.095 255 0 0
24.76404 31.753899 -48.293 255 0 0
24.76404 31.753899 -48.491 255 0 0
24.76404 31.753899 -48.689 255 0 0
24.76404 31.753899 -48.887 255 0 0
24.76404 31.753899 -49.085 255 0 0
24.76404 31.753899 -49.283 255 0 0
24.76404 31.753899 -49.48 255 0 0
24.76404 31.753899 -49.678 255 0 0
24.76404 31.753899 -49.876 255 0 0
24.76404 31.753899 -50.074 255 0 0
24.76404 31.753899 -50.272 255 0 0
24.965246 32.01228 -50.445 255 0 0
24.965246 32.01228 -50.643 255 0 0
24.965246 32.01228 -50.841 255 0 0
24.965246 32.01228 -51.039 255 0 0
24.76404 31.753899 -51.262 255 0 0
24.965246 32.01228 -51.434 255 0 0
24.965246 32.01228 -51.632 255 0 0
24.965246 32.01228 -51.83 255 0 0
24.965246 32.01228 -52.028 255 0 0
24.965246 32.01228 -52.226 255 0 0
24.965246 32.01228 -52.423 255 0 0
24.965246 32.01228 -52.621 255 0 0
24.965246 32.01228 -52.819 255 0 0
24.965246 32.01228 -53.017 255 0 0
24.76404 31.753899 -53.241 255 0 0
24.76404 31.753899 -53.439 255 0 0
24.76404 31.753899 -53.637 255 0 0
24.76404 31.753899 -53.835 255 0 0
24.76404 31.753899 -54.033 255 0 0
24.76404 31.753899 -54.231 255 0 0
24.76404 31.753899 -54.428 255 0 0
24.76404 31.753899 -54.626 255 0 0
24.76404 31.753899 -54.824 255 0 0
24.76404 31.753899 -55.022 255 0 0
24.562834 31.49552 -55.247 255 0 0
24.562834 31.49552 -55.445 255 0 0
24.76404 31.753899 -55.616 255 0 0
24.76404 31.753899 -55.814 255 0 0
24.76404 31.753899 -56.012 255 0 0
24.76404 31.753899 -56.21 255 0 0
24.76404 31.753899 -56.408 255 0 0
24.76404 31.753899 -56.606 255 0 0
24.76404 31.753899 -56.804 255 0 0
24.562834 31.49552 -57.03 255 0 0
24.562834 31.49552 -57.228 255 0 0
24.76404 31.753899 -57.397 255 0 0
24.76404 31.753899 -57.595 255 0 0
24.76404 31.753899 -57.793 255 0 0
24.76404 31.753899 -57.991 255 0 0
24.76404 31.753899 -58.189 255 0 0
24.76404 31.753899 -58.387 255 0 0
24.76404 31.753899 -58.585 255 0 0
24.76404 31.753899 -58.783 255 0 0
24.76404 31.753899 -58.981 255 0 0
24.562834 31.49552 -59.208 255 0 0
24.562834 31.49552 -59.406 255 0 0
24.562834 31.49552 -59.604 255 0 0
24.562834 31.49552 -59.802 255 0 0
24.562834 31.49552 -60.0 255 0 0
24.562834 31.49552 -60.198 255 0 0
24.76404 31.753899 -60.366 255 0 0
24.76404 31.753899 -60.564 255 0 0
24.76404 31.753899 -60.762 255 0 0
24.965246 32.01228 -60.93 255 0 0
24.965246 32.01228 -61.128 255 0 0
24.76404 31.753899 -61.356 255 0 0
24.562834 31.49552 -61.584 255 0 0
24.562834 31.49552 -61.782 255 0 0
24.562834 31.49552 -61.98 255 0 0
24.562834 31.49552 -62.178 255 0 0
24.76404 31.753899 -62.345 255 0 0
24.562834 31.49552 -62.574 255 0 0
24.76404 31.753899 -62.741 255 0 0
24.76404 31.753899 -62.939 255 0 0
24.76404 31.753899 -63.137 255 0 0
24.76404 31.753899 -63.335 255 0 0
24.965246 32.01228 -63.502 255 0 0
25.768185 33.041348 -63.574 255 0 0
25.768185 33.041348 -63.772 255 0 0
25.166878 32.269604 -64.064 255 0 0
25.367456 32.5265 -64.23 255 0 0
25.567606 32.78445 -64.396 255 0 0
25.567606 32.78445 -64.593 255 0 0
25.768185 33.041348 -64.759 255 0 0
25.968761 33.298244 -64.925 255 0 0
25.968761 33.298244 -65.122 255 0 0
25.968761 33.298244 -65.319 255 0 0
26.168285 33.554714 -65.485 255 0 0
26.368235 33.81013 -65.65 255 0 0
26.368235 33.81013 -65.847 255 0 0
26.368235 33.81013 -66.044 255 0 0
26.368235 33.81013 -66.241 255 0 0
26.168285 33.554714 -66.471 255 0 0
26.368235 33.81013 -66.635 255 0 0
26.567757 34.066597 -66.8 255 0 0
26.567757 34.066597 -66.997 255 0 0
26.567757 34.066597 -67.194 255 0 0
27.363964 35.088028 -67.259 255 0 0
27.363964 35.088028 -67.456 255 0 0
26.567757 34.066597 -67.785 255 0 0
26.567757 34.066597 -67.982 255 0 0
26.567757 34.066597 -68.179 255 0 0
26.567757 34.066597 -68.376 255 0 0
26.767706 34.322014 -68.54 255 0 0
26.966173 34.578056 -68.703 255 0 0
24.91266 32.466267 -38.755 255 0 0
24.91266 32.466267 -38.952 255 0 0
24.513884 31.947414 -39.189 255 0 0
24.513884 31.947414 -39.386 255 0 0
24.513884 31.947414 -39.584 255 0 0
24.513884 31.947414 -39.782 255 0 0
24.513884 31.947414 -39.98 255 0 0
24.513884 31.947414 -40.178 255 0 0
24.513884 31.947414 -40.376 255 0 0
24.513884 31.947414 -40.574 255 0 0
24.513884 31.947414 -40.772 255 0 0
24.513884 31.947414 -40.97 255 0 0
24.713055 32.207367 -41.147 255 0 0
24.513884 31.947414 -41.366 255 0 0
24.513884 31.947414 -41.564 255 0 0
24.513884 31.947414 -41.761 255 0 0
24.314714 31.687462 -41.98 255 0 0
24.314714 31.687462 -42.178 255 0 0
24.314714 31.687462 -42.376 255 0 0
24.314714 31.687462 -42.574 255 0 0
24.314714 31.687462 -42.772 255 0 0
24.314714 31.687462 -42.97 255 0 0
24.513884 31.947414 -43.147 255 0 0
24.513884 31.947414 -43.345 255 0 0
24.513884 31.947414 -43.543 255 0 0
24.513884 31.947414 -43.741 255 0 0
24.513884 31.947414 -43.939 255 0 0
24.513884 31.947414 -44.137 255 0 0
24.513884 31.947414 -44.334 255 0 0
24.513884 31.947414 -44.532 255 0 0
24.513884 31.947414 -44.73 255 0 0
24.513884 31.947414 -44.928 255 0 0
24.513884 31.947414 -45.126 255 0 0
24.513884 31.947414 -45.324 255 0 0
24.513884 31.947414 -45.522 255 0 0
24.513884 31.947414 -45.72 255 0 0
24.513884 31.947414 -45.918 255 0 0
24.513884 31.947414 -46.116 255 0 0
24.513884 31.947414 -46.314 255 0 0
24.513884 31.947414 -46.512 255 0 0
24.513884 31.947414 -46.71 255 0 0
24.513884 31.947414 -46.907 255 0 0
24.513884 31.947414 -47.105 255 0 0
24.513884 31.947414 -47.303 255 0 0
24.513884 31.947414 -47.501 255 0 0
24.513884 31.947414 -47.699 255 0 0
24.513884 31.947414 -47.897 255 0 0
24.513884 31.947414 -48.095 255 0 0
24.513884 31.947414 -48.293 255 0 0
24.513884 31.947414 -48.491 255 0 0
24.513884 31.947414 -48.689 255 0 0
24.513884 31.947414 -48.887 255 0 0
24.513884 31.947414 -49.085 255 0 0
24.513884 31.947414 -49.283 255 0 0
24.513884 31.947414 -49.48 255 0 0
24.513884 31.947414 -49.678 255 0 0
24.513884 31.947414 -49.876 255 0 0
24.513884 31.947414 -50.074 255 0 0
24.513884 31.947414 -50.272 255 0 0
24.513884 31.947414 -50.47 255 0 0
24.513884 31.947414 -50.668 255 0 0
24.513884 31.947414 -50.866 255 0 0
24.513884 31.947414 -51.064 255 0 0
24.513884 31.947414 -51.262 255 0 0
24.513884 31.947414 -51.46 255 0 0
24.513884 31.947414 -51.658 255 0 0
24.513884 31.947414 -51.855 255 0 0
24.513884 31.947414 -52.053 255 0 0
24.513884 31.947414 -52.251 255 0 0
24.513884 31.947414 -52.449 255 0 0
24.513884 31.947414 -52.647 255 0 0
24.513884 31.947414 -52.845 255 0 0
24.513884 31.947414 -53.043 255 0 0
24.513884 31.947414 -53.241 255 0 0
24.513884 31.947414 -53.439 255 0 0
24.513884 31.947414 -53.637 255 0 0
24.513884 31.947414 -53.835 255 0 0
24.513884 31.947414 -54.033 255 0 0
24.513884 31.947414 -54.231 255 0 0
24.513884 31.947414 -54.428 255 0 0
24.513884 31.947414 -54.626 255 0 0
24.513884 31.947414 -54.824 255 0 0
24.513884 31.947414 -55.022 255 0 0
24.513884 31.947414 -55.22 255 0 0
24.513884 31.947414 -55.418 255 0 0
24.513884 31.947414 -55.616 255 0 0
24.513884 31.947414 -55.814 255 0 0
24.513884 31.947414 -56.012 255 0 0
24.513884 31.947414 -56.21 255 0 0
24.513884 31.947414 -56.408 255 0 0
24.513884 31.947414 -56.606 255 0 0
24.513884 31.947414 -56.804 255 0 0
24.513884 31.947414 -57.001 255 0 0
24.513884 31.947414 -57.199 255 0 0
24.513884 31.947414 -57.397 255 0 0
24.513884 31.947414 -57.595 255 0 0
24.513884 31.947414 -57.793 255 0 0
24.513884 31.947414 -57.991 255 0 0
24.513884 31.947414 -58.189 255 0 0
24.513884 31.947414 -58.387 255 0 0
24.513884 31.947414 -58.585 255 0 0
24.513884 31.947414 -58.783 255 0 0
24.713055 32.207367 -58.952 255 0 0
24.713055 32.207367 -59.15 255 0 0
24.713055 32.207367 -59.347 255 0 0
24.713055 32.207367 -59.545 255 0 0
24.513884 31.947414 -59.772 255 0 0
24.513884 31.947414 -59.97 255 0 0
24.513884 31.947414 -60.168 255 0 0
24.513884 31.947414 -60.366 255 0 0
24.513884 31.947414 -60.564 255 0 0
24.513884 31.947414 -60.762 255 0 0
24.513884 31.947414 -60.96 255 0 0
24.513884 31.947414 -61.158 255 0 0
24.513884 31.947414 -61.356 255 0 0
24.513884 31.947414 -61.554 255 0 0
24.513884 31.947414 -61.752 255 0 0
24.513884 31.947414 -61.949 255 0 0
24.513884 31.947414 -62.147 255 0 0
24.713055 32.207367 -62.315 255 0 0
24.513884 31.947414 -62.543 255 0 0
24.713055 32.207367 -62.71 255 0 0
24.713055 32.207367 -62.908 255 0 0
24.713055 32.207367 -63.106 255 0 0
24.713055 32.207367 -63.304 255 0 0
24.713055 32.207367 -63.502 255 0 0
25.507887 33.24271 -63.574 255 0 0
24.91266 32.466267 -63.866 255 0 0
24.91266 32.466267 -64.064 255 0 0
25.111214 32.72473 -64.23 255 0 0
25.309332 32.984245 -64.396 255 0 0
25.309332 32.984245 -64.593 255 0 0
26.299381 34.274208 -64.632 255 0 0
25.70644 33.501175 -64.925 255 0 0
25.70644 33.501175 -65.122 255 0 0
25.70644 33.501175 -65.319 255 0 0
25.903942 33.759205 -65.485 255 0 0
26.10188 34.01618 -65.65 255 0 0
26.10188 34.01618 -65.847 255 0 0
26.10188 34.01618 -66.044 255 0 0
26.10188 34.01618 -66.241 255 0 0
26.10188 34.01618 -66.438 255 0 0
26.10188 34.01618 -66.635 255 0 0
26.299381 34.274208 -66.8 255 0 0
26.299381 34.274208 -66.997 255 0 0
26.299381 34.274208 -67.194 255 0 0
26.299381 34.274208 -67.391 255 0 0
26.299381 34.274208 -67.588 255 0 0
26.49732 34.531185 -67.752 255 0 0
26.49732 34.531185 -67.949 255 0 0
26.49732 34.531185 -68.146 255 0 0
26.69377 34.788776 -68.309 255 0 0
26.49732 34.531185 -68.54 255 0 0
26.69377 34.788776 -68.703 255 0 0
26.890656 35.04532 -68.866 255 0 0
24.656904 32.660927 -38.755 255 0 0
24.853422 32.92094 -38.933 255 0 0
24.45934 32.400467 -39.169 255 0 0
24.262217 32.138958 -39.386 255 0 0
24.262217 32.138958 -39.584 255 0 0
24.262217 32.138958 -39.782 255 0 0
24.262217 32.138958 -39.98 255 0 0
24.262217 32.138958 -40.178 255 0 0
24.262217 32.138958 -40.376 255 0 0
24.262217 32.138958 -40.574 255 0 0
24.262217 32.138958 -40.772 255 0 0
24.262217 32.138958 -40.97 255 0 0
24.262217 32.138958 -41.168 255 0 0
24.262217 32.138958 -41.366 255 0 0
24.45934 32.400467 -41.543 255 0 0
24.45934 32.400467 -41.741 255 0 0
24.45934 32.400467 -41.939 255 0 0
24.262217 32.138958 -42.157 255 0 0
24.262217 32.138958 -42.355 255 0 0
24.262217 32.138958 -42.553 255 0 0
24.262217 32.138958 -42.751 255 0 0
24.262217 32.138958 -42.949 255 0 0
24.262217 32.138958 -43.147 255 0 0
24.262217 32.138958 -43.345 255 0 0
24.262217 32.138958 -43.543 255 0 0
24.262217 32.138958 -43.741 255 0 0
24.262217 32.138958 -43.939 255 0 0
24.262217 32.138958 -44.137 255 0 0
24.262217 32.138958 -44.334 255 0 0
24.262217 32.138958 -44.532 255 0 0
24.262217 32.138958 -44.73 255 0 0
24.262217 32.138958 -44.928 255 0 0
24.262217 32.138958 -45.126 255 0 0
24.262217 32.138958 -45.324 255 0 0
24.262217 32.138958 -45.522 255 0 0
24.262217 32.138958 -45.72 255 0 0
24.262217 32.138958 -45.918 255 0 0
24.262217 32.138958 -46.116 255 0 0
24.262217 32.138958 -46.314 255 0 0
24.262217 32.138958 -46.512 255 0 0
24.262217 32.138958 -46.71 255 0 0
24.262217 32.138958 -46.907 255 0 0
24.262217 32.138958 -47.105 255 0 0
24.262217 32.138958 -47.303 255 0 0
24.262217 32.138958 -47.501 255 0 0
24.262217 32.138958 -47.699 255 0 0
24.262217 32.138958 -47.897 255 0 0
24.262217 32.138958 -48.095 255 0 0
24.262217 32.138958 -48.293 255 0 0
24.262217 32.138958 -48.491 255 0 0
24.262217 32.138958 -48.689 255 0 0
24.262217 32.138958 -48.887 255 0 0
24.262217 32.138958 -49.085 255 0 0
24.262217 32.138958 -49.283 255 0 0
24.262217 32.138958 -49.48 255 0 0
24.262217 32.138958 -49.678 255 0 0
24.262217 32.138958 -49.876 255 0 0
24.262217 32.138958 -50.074 255 0 0
24.262217 32.138958 -50.272 255 0 0
24.262217 32.138958 -50.47 255 0 0
24.262217 32.138958 -50.668 255 0 0
24.262217 32.138958 -50.866 255 0 0
24.262217 32.138958 -51.064 255 0 0
24.262217 32.138958 -51.262 255 0 0
24.262217 32.138958 -51.46 255 0 0
24.262217 32.138958 -51.658 255 0 0
24.262217 32.138958 -51.855 255 0 0
24.262217 32.138958 -52.053 255 0 0
24.262217 32.138958 -52.251 255 0 0
24.262217 32.138958 -52.449 255 0 0
24.262217 32.138958 -52.647 255 0 0
24.262217 32.138958 -52.845 255 0 0
24.262217 32.138958 -53.043 255 0 0
24.262217 32.138958 -53.241 255 0 0
24.262217 32.138958 -53.439 255 0 0
24.262217 32.138958 -53.637 255 0 0
24.262217 32.138958 -53.835 255 0 0
24.262217 32.138958 -54.033 255 0 0
24.262217 32.138958 -54.231 255 0 0
24.262217 32.138958 -54.428 255 0 0
24.262217 32.138958 -54.626 255 0 0
24.262217 32.138958 -54.824 255 0 0
24.262217 32.138958 -55.022 255 0 0
24.262217 32.138958 -55.22 255 0 0
24.262217 32.138958 -55.418 255 0 0
24.262217 32.138958 -55.616 255 0 0
24.262217 32.138958 -55.814 255 0 0
24.262217 32.138958 -56.012 255 0 0
24.262217 32.138958 -56.21 255 0 0
24.262217 32.138958 -56.408 255 0 0
24.262217 32.138958 -56.606 255 0 0
24.262217 32.138958 -56.804 255 0 0
24.262217 32.138958 -57.001 255 0 0
24.262217 32.138958 -57.199 255 0 0
24.262217 32.138958 -57.397 255 0 0
24.262217 32.138958 -57.595 255 0 0
24.262217 32.138958 -57.793 255 0 0
24.262217 32.138958 -57.991 255 0 0
24.262217 32.138958 -58.189 255 0 0
24.262217 32.138958 -58.387 255 0 0
24.262217 32.138958 -58.585 255 0 0
24.262217 32.138958 -58.783 255 0 0
24.262217 32.138958 -58.981 255 0 0
24.262217 32.138958 -59.179 255 0 0
24.262217 32.138958 -59.377 255 0 0
24.262217 32.138958 -59.574 255 0 0
24.262217 32.138958 -59.772 255 0 0
24.262217 32.138958 -59.97 255 0 0
24.45934 32.400467 -60.139 255 0 0
24.45934 32.400467 -60.336 255 0 0
24.262217 32.138958 -60.564 255 0 0
24.262217 32.138958 -60.762 255 0 0
24.262217 32.138958 -60.96 255 0 0
24.262217 32.138958 -61.158 255 0 0
24.45934 32.400467 -61.326 255 0 0
24.262217 32.138958 -61.554 255 0 0
24.262217 32.138958 -61.752 255 0 0
24.262217 32.138958 -61.949 255 0 0
24.45934 32.400467 -62.117 255 0 0
24.45934 32.400467 -62.315 255 0 0
24.45934 32.400467 -62.513 255 0 0
24.45934 32.400467 -62.71 255 0 0
24.45934 32.400467 -62.908 255 0 0
24.45934 32.400467 -63.106 255 0 0
24.45934 32.400467 -63.304 255 0 0
25.246014 33.44202 -63.377 255 0 0
24.656904 32.660927 -63.668 255 0 0
24.656904 32.660927 -63.866 255 0 0
24.853422 32.92094 -64.032 255 0 0
25.442532 33.702038 -64.135 255 0 0
25.049496 33.182007 -64.396 255 0 0
25.246014 33.44202 -64.562 255 0 0
25.442532 33.702038 -64.727 255 0 0
25.442532 33.702038 -64.925 255 0 0
25.638002 33.96161 -65.09 255 0 0
26.225298 34.738228 -65.191 255 0 0
25.833916 34.22013 -65.453 255 0 0
25.833916 34.22013 -65.65 255 0 0
25.833916 34.22013 -65.847 255 0 0
26.029385 34.479706 -66.012 255 0 0
25.833916 34.22013 -66.241 255 0 0
26.029385 34.479706 -66.406 255 0 0
26.029385 34.479706 -66.603 255 0 0
25.833916 34.22013 -66.833 255 0 0
26.029385 34.479706 -66.997 255 0 0
26.225298 34.738228 -67.161 255 0 0
26.225298 34.738228 -67.358 255 0 0
26.225298 34.738228 -67.555 255 0 0
26.225298 34.738228 -67.752 255 0 0
26.225298 34.738228 -67.949 255 0 0
26.419718 34.997356 -68.112 255 0 0
26.419718 34.997356 -68.309 255 0 0
26.419718 34.997356 -68.506 255 0 0
26.614584 35.255436 -68.669 255 0 0
26.614584 35.255436 -68.866 255 0 0
24.594099 33.115124 -38.736 255 0 0
24.594099 33.115124 -38.933 255 0 0
24.204115 32.591568 -39.169 255 0 0
24.39963 32.853573 -39.348 255 0 0
24.39963 32.853573 -39.545 255 0 0
24.39963 32.853573 -39.743 255 0 0
24.39963 32.853573 -39.941 255 0 0
24.39963 32.853573 -40.139 255 0 0
24.39963 32.853573 -40.336 255 0 0
24.39963 32.853573 -40.534 255 0 0
24.204115 32.591568 -40.752 255 0 0
24.204115 32.591568 -40.95 255 0 0
24.204115 32.591568 -41.147 255 0 0
24.204115 32.591568 -41.345 255 0 0
24.204115 32.591568 -41.543 255 0 0
24.204115 32.591568 -41.741 255 0 0
24.204115 32.591568 -41.939 255 0 0
24.204115 32.591568 -42.137 255 0 0
24.204115 32.591568 -42.334 255 0 0
24.204115 32.591568 -42.532 255 0 0
24.204115 32.591568 -42.73 255 0 0
24.204115 32.591568 -42.928 255 0 0
24.204115 32.591568 -43.126 255 0 0
24.204115 32.591568 -43.324 255 0 0
24.204115 32.591568 -43.521 255 0 0
24.39963 32.853573 -43.698 255 0 0
24.204115 32.591568 -43.917 255 0 0
24.204115 32.591568 -44.115 255 0 0
24.204115 32.591568 -44.313 255 0 0
24.204115 32.591568 -44.51 255 0 0
24.204115 32.591568 -44.708 255 0 0
24.204115 32.591568 -44.906 255 0 0
24.204115 32.591568 -45.104 255 0 0
24.204115 32.591568 -45.302 255 0 0
24.204115 32.591568 -45.5 255 0 0
24.204115 32.591568 -45.697 255 0 0
24.204115 32.591568 -45.895 255 0 0
24.39963 32.853573 -46.07 255 0 0
24.204115 32.591568 -46.291 255 0 0
24.204115 32.591568 -46.489 255 0 0
24.204115 32.591568 -46.687 255 0 0
24.204115 32.591568 -46.884 255 0 0
24.204115 32.591568 -47.082 255 0 0
24.204115 32.591568 -47.28 255 0 0
24.204115 32.591568 -47.478 255 0 0
24.204115 32.591568 -47.676 255 0 0
24.204115 32.591568 -47.874 255 0 0
24.204115 32.591568 -48.071 255 0 0
24.204115 32.591568 -48.269 255 0 0
24.204115 32.591568 -48.467 255 0 0
24.204115 32.591568 -48.665 255 0 0
24.204115 32.591568 -48.863 255 0 0
24.204115 32.591568 -49.06 255 0 0
24.204115 32.591568 -49.258 255 0 0
24.204115 32.591568 -49.456 255 0 0
24.204115 32.591568 -49.654 255 0 0
24.204115 32.591568 -49.852 255 0 0
24.204115 32.591568 -50.05 255 0 0
24.204115 32.591568 -50.247 255 0 0
24.204115 32.591568 -50.445 255 0 0
24.204115 32.591568 -50.643 255 0 0
24.204115 32.591568 -50.841 255 0 0
24.204115 32.591568 -51.039 255 0 0
24.204115 32.591568 -51.237 255 0 0
24.204115 32.591568 -51.434 255 0 0
24.204115 32.591568 -51.632 255 0 0
24.204115 32.591568 -51.83 255 0 0
24.204115 32.591568 -52.028 255 0 0
24.204115 32.591568 -52.226 255 0 0
24.204115 32.591568 -52.423 255 0 0
24.204115 32.591568 -52.621 255 0 0
24.204115 32.591568 -52.819 255 0 0
24.204115 32.591568 -53.017 255 0 0
24.204115 32.591568 -53.215 255 0 0
24.204115 32.591568 -53.413 255 0 0
24.204115 32.591568 -53.61 255 0 0
24.204115 32.591568 -53.808 255 0 0
24.204115 32.591568 -54.006 255 0 0
24.204115 32.591568 -54.204 255 0 0
24.204115 32.591568 -54.402 255 0 0
24.204115 32.591568 -54.6 255 0 0
24.204115 32.591568 -54.797 255 0 0
24.204115 32.591568 -54.995 255 0 0
24.204115 32.591568 -55.193 255 0 0
24.204115 32.591568 -55.391 255 0 0
24.204115 32.591568 -55.589 255 0 0
24.204115 32.591568 -55.786 255 0 0
24.204115 32.591568 -55.984 255 0 0
24.204115 32.591568 -56.182 255 0 0
24.204115 32.591568 -56.38 255 0 0
24.204115 32.591568 -56.578 255 0 0
24.204115 32.591568 -56.776 255 0 0
24.204115 32.591568 -56.973 255 0 0
24.204115 32.591568 -57.171 255 0 0
24.204115 32.591568 -57.369 255 0 0
24.204115 32.591568 -57.567 255 0 0
24.204115 32.591568 -57.765 255 0 0
24.204115 32.591568 -57.963 255 0 0
24.204115 32.591568 -58.16 255 0 0
24.204115 32.591568 -58.358 255 0 0
24.204115 32.591568 -58.556 255 0 0
24.204115 32.591568 -58.754 255 0 0
24.204115 32.591568 -58.952 255 0 0
24.204115 32.591568 -59.15 255 0 0
24.204115 32.591568 -59.347 255 0 0
24.204115 32.591568 -59.545 255 0 0
24.204115 32.591568 -59.743 255 0 0
24.204115 32.591568 -59.941 255 0 0
24.204115 32.591568 -60.139 255 0 0
24.204115 32.591568 -60.336 255 0 0
24.204115 32.591568 -60.534 255 0 0
24.982586 33.63927 -60.613 255 0 0
24.204115 32.591568 -60.93 255 0 0
24.204115 32.591568 -61.128 255 0 0
24.204115 32.591568 -61.326 255 0 0
24.204115 32.591568 -61.523 255 0 0
24.982586 33.63927 -61.6 255 0 0
24.982586 33.63927 -61.798 255 0 0
24.982586 33.63927 -61.995 255 0 0
24.982586 33.63927 -62.192 255 0 0
24.982586 33.63927 -62.39 255 0 0
24.204115 32.591568 -62.71 255 0 0
24.204115 32.591568 -62.908 255 0 0
24.982586 33.63927 -62.982 255 0 0
24.982586 33.63927 -63.18 255 0 0
24.982586 33.63927 -63.377 255 0 0
24.39963 32.853573 -63.668 255 0 0
24.594099 33.115124 -63.835 255 0 0
24.594099 33.115124 -64.032 255 0 0
24.788116 33.37772 -64.198 255 0 0
24.788116 33.37772 -64.396 255 0 0
25.177055 33.90082 -64.53 255 0 0
25.177055 33.90082 -64.727 255 0 0
25.37048 34.16192 -64.893 255 0 0
26.144037 35.203773 -64.963 255 0 0
25.564356 34.421974 -65.255 255 0 0
25.564356 34.421974 -65.453 255 0 0
25.564356 34.421974 -65.65 255 0 0
25.564356 34.421974 -65.847 255 0 0
25.757782 34.68307 -66.012 255 0 0
26.529701 35.722977 -66.079 255 0 0
26.529701 35.722977 -66.276 255 0 0
25.757782 34.68307 -66.603 255 0 0
25.951658 34.943127 -66.767 255 0 0
25.951658 34.943127 -66.964 255 0 0
25.951658 34.943127 -67.161 255 0 0
25.951658 34.943127 -67.358 255 0 0
25.951658 34.943127 -67.555 255 0 0
25.951658 34.943127 -67.752 255 0 0
25.951658 34.943127 -67.949 255 0 0
25.951658 34.943127 -68.146 255 0 0
26.144037 35.203773 -68.309 255 0 0
26.33687 35.463375 -68.473 255 0 0
26.529701 35.722977 -68.636 255 0 0
26.529701 35.722977 -68.833 255 0 0
24.333258 33.307262 -38.736 255 0 0
24.140848 33.04419 -38.952 255 0 0
24.140848 33.04419 -39.15 255 0 0
24.140848 33.04419 -39.348 255 0 0
24.140848 33.04419 -39.545 255 0 0
24.140848 33.04419 -39.743 255 0 0
23.947397 32.78066 -39.961 255 0 0
24.140848 33.04419 -40.139 255 0 0
23.947397 32.78066 -40.356 255 0 0
23.947397 32.78066 -40.554 255 0 0
23.947397 32.78066 -40.752 255 0 0
23.947397 32.78066 -40.95 255 0 0
23.947397 32.78066 -41.147 255 0 0
23.947397 32.78066 -41.345 255 0 0
23.947397 32.78066 -41.543 255 0 0
23.947397 32.78066 -41.741 255 0 0
23.947397 32.78066 -41.939 255 0 0
23.947397 32.78066 -42.137 255 0 0
23.947397 32.78066 -42.334 255 0 0
23.947397 32.78066 -42.532 255 0 0
23.947397 32.78066 -42.73 255 0 0
23.947397 32.78066 -42.928 255 0 0
23.947397 32.78066 -43.126 255 0 0
23.947397 32.78066 -43.324 255 0 0
23.947397 32.78066 -43.521 255 0 0
23.947397 32.78066 -43.719 255 0 0
23.947397 32.78066 -43.917 255 0 0
23.947397 32.78066 -44.115 255 0 0
23.947397 32.78066 -44.313 255 0 0
23.947397 32.78066 -44.51 255 0 0
23.947397 32.78066 -44.708 255 0 0
24.140848 33.04419 -44.884 255 0 0
24.140848 33.04419 -45.082 255 0 0
24.140848 33.04419 -45.28 255 0 0
24.140848 33.04419 -45.477 255 0 0
24.140848 33.04419 -45.675 255 0 0
24.140848 33.04419 -45.873 255 0 0
23.947397 32.78066 -46.093 255 0 0
23.947397 32.78066 -46.291 255 0 0
23.947397 32.78066 -46.489 255 0 0
23.947397 32.78066 -46.687 255 0 0
23.947397 32.78066 -46.884 255 0 0
23.947397 32.78066 -47.082 255 0 0
24.140848 33.04419 -47.257 255 0 0
23.947397 32.78066 -47.478 255 0 0
23.947397 32.78066 -47.676 255 0 0
24.140848 33.04419 -47.85 255 0 0
23.947397 32.78066 -48.071 255 0 0
23.947397 32.78066 -48.269 255 0 0
23.947397 32.78066 -48.467 255 0 0
23.947397 32.78066 -48.665 255 0 0
23.947397 32.78066 -48.863 255 0 0
23.947397 32.78066 -49.06 255 0 0
23.947397 32.78066 -49.258 255 0 0
23.947397 32.78066 -49.456 255 0 0
23.947397 32.78066 -49.654 255 0 0
23.947397 32.78066 -49.852 255 0 0
23.947397 32.78066 -50.05 255 0 0
23.947397 32.78066 -50.247 255 0 0
23.947397 32.78066 -50.445 255 0 0
23.947397 32.78066 -50.643 255 0 0
23.947397 32.78066 -50.841 255 0 0
24.140848 33.04419 -51.014 255 0 0
24.140848 33.04419 -51.211 255 0 0
24.140848 33.04419 -51.409 255 0 0
24.140848 33.04419 -51.607 255 0 0
24.140848 33.04419 -51.805 255 0 0
24.140848 33.04419 -52.002 255 0 0
24.140848 33.04419 -52.2 255 0 0
24.140848 33.04419 -52.398 255 0 0
24.140848 33.04419 -52.595 255 0 0
24.140848 33.04419 -52.793 255 0 0
24.140848 33.04419 -52.991 255 0 0
23.947397 32.78066 -53.215 255 0 0
23.947397 32.78066 -53.413 255 0 0
23.947397 32.78066 -53.61 255 0 0
24.140848 33.04419 -53.782 255 0 0
23.947397 32.78066 -54.006 255 0 0
24.140848 33.04419 -54.177 255 0 0
23.947397 32.78066 -54.402 255 0 0
24.140848 33.04419 -54.573 255 0 0
24.140848 33.04419 -54.77 255 0 0
23.947397 32.78066 -54.995 255 0 0
23.947397 32.78066 -55.193 255 0 0
24.717615 33.834442 -55.282 255 0 0
24.717615 33.834442 -55.48 255 0 0
23.947397 32.78066 -55.786 255 0 0
24.140848 33.04419 -55.957 255 0 0
24.140848 33.04419 -56.155 255 0 0
24.140848 33.04419 -56.352 255 0 0
24.140848 33.04419 -56.55 255 0 0
23.947397 32.78066 -56.776 255 0 0
23.947397 32.78066 -56.973 255 0 0
23.947397 32.78066 -57.171 255 0 0
23.947397 32.78066 -57.369 255 0 0
23.947397 32.78066 -57.567 255 0 0
23.947397 32.78066 -57.765 255 0 0
24.140848 33.04419 -57.934 255 0 0
24.717615 33.834442 -58.046 255 0 0
24.717615 33.834442 -58.244 255 0 0
24.717615 33.834442 -58.441 255 0 0
24.717615 33.834442 -58.639 255 0 0
23.947397 32.78066 -58.952 255 0 0
23.947397 32.78066 -59.15 255 0 0
23.947397 32.78066 -59.347 255 0 0
23.947397 32.78066 -59.545 255 0 0
23.947397 32.78066 -59.743 255 0 0
23.947397 32.78066 -59.941 255 0 0
23.947397 32.78066 -60.139 255 0 0
23.947397 32.78066 -60.336 255 0 0
23.947397 32.78066 -60.534 255 0 0
23.947397 32.78066 -60.732 255 0 0
24.717615 33.834442 -60.81 255 0 0
23.947397 32.78066 -61.128 255 0 0
23.947397 32.78066 -61.326 255 0 0
23.947397 32.78066 -61.523 255 0 0
23.947397 32.78066 -61.721 255 0 0
23.947397 32.78066 -61.919 255 0 0
23.947397 32.78066 -62.117 255 0 0
23.947397 32.78066 -62.315 255 0 0
23.947397 32.78066 -62.513 255 0 0
23.947397 32.78066 -62.71 255 0 0
23.947397 32.78066 -62.908 255 0 0
23.947397 32.78066 -63.106 255 0 0
23.947397 32.78066 -63.304 255 0 0
24.140848 33.04419 -63.47 255 0 0
24.140848 33.04419 -63.668 255 0 0
24.333258 33.307262 -63.835 255 0 0
24.910025 34.097515 -63.938 255 0 0
24.525206 33.571373 -64.198 255 0 0
24.717615 33.834442 -64.364 255 0 0
24.910025 34.097515 -64.53 255 0 0
24.910025 34.097515 -64.727 255 0 0
25.101393 34.360123 -64.893 255 0 0
25.29322 34.621693 -65.058 255 0 0
25.29322 34.621693 -65.255 255 0 0
25.29322 34.621693 -65.453 255 0 0
25.484589 34.884304 -65.618 255 0 0
25.484589 34.884304 -65.815 255 0 0
25.484589 34.884304 -66.012 255 0 0
25.484589 34.884304 -66.209 255 0 0
25.676418 35.14587 -66.373 255 0 0
25.676418 35.14587 -66.57 255 0 0
25.484589 34.884304 -66.8 255 0 0
25.676418 35.14587 -66.964 255 0 0
25.676418 35.14587 -67.161 255 0 0
25.676418 35.14587 -67.358 255 0 0
25.676418 35.14587 -67.555 255 0 0
25.676418 35.14587 -67.752 255 0 0
25.676418 35.14587 -67.949 255 0 0
25.676418 35.14587 -68.146 255 0 0
25.866745 35.40802 -68.309 255 0 0
26.24832 35.930237 -68.439 255 0 0
26.24832 35.930237 -68.636 255 0 0
26.24832 35.930237 -68.833 255 0 0
24.070915 33.497345 -38.736 255 0 0
24.070915 33.497345 -38.933 255 0 0
23.880577 33.232773 -39.15 255 0 0
23.880577 33.232773 -39.348 255 0 0
23.880577 33.232773 -39.545 255 0 0
23.689201 32.967728 -39.763 255 0 0
23.689201 32.967728 -39.961 255 0 0
23.689201 32.967728 -40.158 255 0 0
23.689201 32.967728 -40.356 255 0 0
23.689201 32.967728 -40.554 255 0 0
23.689201 32.967728 -40.752 255 0 0
23.689201 32.967728 -40.95 255 0 0
23.689201 32.967728 -41.147 255 0 0
23.689201 32.967728 -41.345 255 0 0
23.880577 33.232773 -41.523 255 0 0
23.880577 33.232773 -41.72 255 0 0
23.880577 33.232773 -41.918 255 0 0
23.880577 33.232773 -42.116 255 0 0
23.880577 33.232773 -42.314 255 0 0
23.689201 32.967728 -42.532 255 0 0
23.689201 32.967728 -42.73 255 0 0
23.880577 33.232773 -42.907 255 0 0
23.880577 33.232773 -43.105 255 0 0
23.880577 33.232773 -43.302 255 0 0
23.880577 33.232773 -43.5 255 0 0
23.880577 33.232773 -43.698 255 0 0
23.689201 32.967728 -43.917 255 0 0
23.689201 32.967728 -44.115 255 0 0
23.689201 32.967728 -44.313 255 0 0
23.689201 32.967728 -44.51 255 0 0
23.689201 32.967728 -44.708 255 0 0
23.689201 32.967728 -44.906 255 0 0
23.689201 32.967728 -45.104 255 0 0
23.689201 32.967728 -45.302 255 0 0
23.689201 32.967728 -45.5 255 0 0
23.689201 32.967728 -45.697 255 0 0
23.689201 32.967728 -45.895 255 0 0
23.689201 32.967728 -46.093 255 0 0
23.689201 32.967728 -46.291 255 0 0
23.689201 32.967728 -46.489 255 0 0
23.689201 32.967728 -46.687 255 0 0
23.689201 32.967728 -46.884 255 0 0
23.689201 32.967728 -47.082 255 0 0
23.689201 32.967728 -47.28 255 0 0
23.689201 32.967728 -47.478 255 0 0
23.689201 32.967728 -47.676 255 0 0
23.689201 32.967728 -47.874 255 0 0
23.689201 32.967728 -48.071 255 0 0
23.689201 32.967728 -48.269 255 0 0
23.689201 32.967728 -48.467 255 0 0
23.689201 32.967728 -48.665 255 0 0
23.689201 32.967728 -48.863 255 0 0
23.689201 32.967728 -49.06 255 0 0
23.689201 32.967728 -49.258 255 0 0
23.880577 33.232773 -49.432 255 0 0
23.880577 33.232773 -49.63 255 0 0
23.880577 33.232773 -49.827 255 0 0
23.689201 32.967728 -50.05 255 0 0
23.880577 33.232773 -50.223 255 0 0
23.880577 33.232773 -50.42 255 0 0
23.689201 32.967728 -50.643 255 0 0
23.880577 33.232773 -50.816 255 0 0
23.880577 33.232773 -51.014 255 0 0
23.880577 33.232773 -51.211 255 0 0
23.880577 33.232773 -51.409 255 0 0
23.880577 33.232773 -51.607 255 0 0
23.880577 33.232773 -51.805 255 0 0
23.880577 33.232773 -52.002 255 0 0
23.689201 32.967728 -52.226 255 0 0
23.689201 32.967728 -52.423 255 0 0
23.689201 32.967728 -52.621 255 0 0
23.689201 32.967728 -52.819 255 0 0
23.689201 32.967728 -53.017 255 0 0
23.689201 32.967728 -53.215 255 0 0
23.689201 32.967728 -53.413 255 0 0
23.880577 33.232773 -53.584 255 0 0
23.880577 33.232773 -53.782 255 0 0
24.45112 34.02753 -53.9 255 0 0
23.880577 33.232773 -54.177 255 0 0
23.880577 33.232773 -54.375 255 0 0
23.880577 33.232773 -54.573 255 0 0
23.880577 33.232773 -54.77 255 0 0
23.880577 33.232773 -54.968 255 0 0
23.880577 33.232773 -55.166 255 0 0
23.880577 33.232773 -55.364 255 0 0
23.880577 33.232773 -55.561 255 0 0
23.880577 33.232773 -55.759 255 0 0
23.880577 33.232773 -55.957 255 0 0
23.880577 33.232773 -56.155 255 0 0
23.880577 33.232773 -56.352 255 0 0
23.880577 33.232773 -56.55 255 0 0
23.880577 33.232773 -56.748 255 0 0
23.880577 33.232773 -56.945 255 0 0
23.880577 33.232773 -57.143 255 0 0
23.880577 33.232773 -57.341 255 0 0
23.880577 33.232773 -57.539 255 0 0
23.880577 33.232773 -57.736 255 0 0
23.880577 33.232773 -57.934 255 0 0
23.880577 33.232773 -58.132 255 0 0
23.880577 33.232773 -58.33 255 0 0
23.880577 33.232773 -58.527 255 0 0
23.880577 33.232773 -58.725 255 0 0
23.880577 33.232773 -58.923 255 0 0
23.880577 33.232773 -59.12 255 0 0
23.880577 33.232773 -59.318 255 0 0
23.880577 33.232773 -59.516 255 0 0
23.880577 33.232773 -59.714 255 0 0
23.880577 33.232773 -59.911 255 0 0
23.880577 33.232773 -60.109 255 0 0
23.880577 33.232773 -60.307 255 0 0
23.880577 33.232773 -60.505 255 0 0
23.880577 33.232773 -60.702 255 0 0
23.880577 33.232773 -60.9 255 0 0
23.880577 33.232773 -61.098 255 0 0
23.689201 32.967728 -61.326 255 0 0
23.689201 32.967728 -61.523 255 0 0
23.689201 32.967728 -61.721 255 0 0
23.689201 32.967728 -61.919 255 0 0
23.880577 33.232773 -62.086 255 0 0
23.880577 33.232773 -62.284 255 0 0
23.880577 33.232773 -62.482 255 0 0
23.880577 33.232773 -62.68 255 0 0
23.880577 33.232773 -62.877 255 0 0
23.880577 33.232773 -63.075 255 0 0
23.880577 33.232773 -63.273 255 0 0
23.880577 33.232773 -63.47 255 0 0
23.880577 33.232773 -63.668 255 0 0
24.070915 33.497345 -63.835 255 0 0
24.260784 33.762955 -64.001 255 0 0
24.260784 33.762955 -64.198 255 0 0
24.45112 34.02753 -64.364 255 0 0
24.641459 34.292103 -64.53 255 0 0
24.641459 34.292103 -64.727 255 0 0
24.830757 34.556206 -64.893 255 0 0
25.020527 34.819275 -65.058 255 0 0
25.020527 34.819275 -65.255 255 0 0
25.209826 35.08338 -65.42 255 0 0
25.776587 35.87268 -65.521 255 0 0
25.209826 35.08338 -65.815 255 0 0
25.965317 36.13528 -65.883 255 0 0
25.399593 35.346447 -66.176 255 0 0
25.399593 35.346447 -66.373 255 0 0
25.399593 35.346447 -66.57 255 0 0
25.587856 35.610085 -66.734 255 0 0
25.399593 35.346447 -66.964 255 0 0
25.399593 35.346447 -67.161 255 0 0
25.399593 35.346447 -67.358 255 0 0
25.399593 35.346447 -67.555 255 0 0
25.399593 35.346447 -67.752 255 0 0
25.399593 35.346447 -67.949 255 0 0
25.399593 35.346447 -68.146 255 0 0
25.587856 35.610085 -68.309 255 0 0
25.776587 35.87268 -68.473 255 0 0
25.965317 36.13528 -68.636 255 0 0
25.965317 36.13528 -68.833 255 0 0
23.807087 33.685364 -38.736 255 0 0
23.994864 33.952457 -38.914 255 0 0
23.618834 33.4193 -39.15 255 0 0
23.618834 33.4193 -39.348 255 0 0
23.618834 33.4193 -39.545 255 0 0
23.618834 33.4193 -39.743 255 0 0
23.618834 33.4193 -39.941 255 0 0
23.618834 33.4193 -40.139 255 0 0
23.618834 33.4193 -40.336 255 0 0
23.618834 33.4193 -40.534 255 0 0
23.618834 33.4193 -40.732 255 0 0
23.618834 33.4193 -40.93 255 0 0
23.618834 33.4193 -41.127 255 0 0
23.618834 33.4193 -41.325 255 0 0
23.618834 33.4193 -41.523 255 0 0
23.618834 33.4193 -41.72 255 0 0
23.618834 33.4193 -41.918 255 0 0
23.618834 33.4193 -42.116 255 0 0
23.618834 33.4193 -42.314 255 0 0
23.618834 33.4193 -42.511 255 0 0
23.618834 33.4193 -42.709 255 0 0
23.618834 33.4193 -42.907 255 0 0
24.183117 34.218517 -43.041 255 0 0
23.618834 33.4193 -43.302 255 0 0
23.618834 33.4193 -43.5 255 0 0
23.618834 33.4193 -43.698 255 0 0
23.618834 33.4193 -43.895 255 0 0
23.618834 33.4193 -44.093 255 0 0
23.618834 33.4193 -44.291 255 0 0
23.429546 33.152763 -44.51 255 0 0
23.429546 33.152763 -44.708 255 0 0
23.618834 33.4193 -44.884 255 0 0
23.618834 33.4193 -45.082 255 0 0
23.429546 33.152763 -45.302 255 0 0
23.429546 33.152763 -45.5 255 0 0
23.429546 33.152763 -45.697 255 0 0
23.618834 33.4193 -45.873 255 0 0
23.618834 33.4193 -46.07 255 0 0
23.618834 33.4193 -46.268 255 0 0
23.618834 33.4193 -46.466 255 0 0
23.429546 33.152763 -46.687 255 0 0
23.618834 33.4193 -46.861 255 0 0
23.618834 33.4193 -47.059 255 0 0
23.618834 33.4193 -47.257 255 0 0
23.618834 33.4193 -47.455 255 0 0
23.618834 33.4193 -47.652 255 0 0
23.618834 33.4193 -47.85 255 0 0
23.618834 33.4193 -48.048 255 0 0
23.618834 33.4193 -48.245 255 0 0
23.618834 33.4193 -48.443 255 0 0
23.429546 33.152763 -48.665 255 0 0
23.618834 33.4193 -48.839 255 0 0
23.618834 33.4193 -49.036 255 0 0
23.618834 33.4193 -49.234 255 0 0
23.618834 33.4193 -49.432 255 0 0
23.618834 33.4193 -49.63 255 0 0
23.618834 33.4193 -49.827 255 0 0
23.618834 33.4193 -50.025 255 0 0
23.618834 33.4193 -50.223 255 0 0
23.618834 33.4193 -50.42 255 0 0
23.618834 33.4193 -50.618 255 0 0
23.618834 33.4193 -50.816 255 0 0
23.618834 33.4193 -51.014 255 0 0
23.618834 33.4193 -51.211 255 0 0
23.618834 33.4193 -51.409 255 0 0
23.618834 33.4193 -51.607 255 0 0
23.618834 33.4193 -51.805 255 0 0
23.618834 33.4193 -52.002 255 0 0
23.618834 33.4193 -52.2 255 0 0
23.618834 33.4193 -52.398 255 0 0
23.618834 33.4193 -52.595 255 0 0
23.618834 33.4193 -52.793 255 0 0
23.618834 33.4193 -52.991 255 0 0
23.618834 33.4193 -53.189 255 0 0
23.618834 33.4193 -53.386 255 0 0
23.618834 33.4193 -53.584 255 0 0
23.618834 33.4193 -53.782 255 0 0
23.618834 33.4193 -53.98 255 0 0
23.618834 33.4193 -54.177 255 0 0
23.618834 33.4193 -54.375 255 0 0
23.618834 33.4193 -54.573 255 0 0
23.618834 33.4193 -54.77 255 0 0
23.618834 33.4193 -54.968 255 0 0
23.618834 33.4193 -55.166 255 0 0
23.618834 33.4193 -55.364 255 0 0
23.618834 33.4193 -55.561 255 0 0
23.618834 33.4193 -55.759 255 0 0
23.618834 33.4193 -55.957 255 0 0
23.618834 33.4193 -56.155 255 0 0
23.618834 33.4193 -56.352 255 0 0
23.618834 33.4193 -56.55 255 0 0
23.618834 33.4193 -56.748 255 0 0
23.807087 33.685364 -56.917 255 0 0
23.618834 33.4193 -57.143 255 0 0
23.618834 33.4193 -57.341 255 0 0
23.618834 33.4193 -57.539 255 0 0
23.618834 33.4193 -57.736 255 0 0
23.618834 33.4193 -57.934 255 0 0
23.618834 33.4193 -58.132 255 0 0
23.618834 33.4193 -58.33 255 0 0
23.618834 33.4193 -58.527 255 0 0
23.618834 33.4193 -58.725 255 0 0
23.618834 33.4193 -58.923 255 0 0
23.618834 33.4193 -59.12 255 0 0
23.618834 33.4193 -59.318 255 0 0
23.618834 33.4193 -59.516 255 0 0
23.618834 33.4193 -59.714 255 0 0
23.618834 33.4193 -59.911 255 0 0
23.618834 33.4193 -60.109 255 0 0
23.618834 33.4193 -60.307 255 0 0
23.618834 33.4193 -60.505 255 0 0
23.618834 33.4193 -60.702 255 0 0
23.618834 33.4193 -60.9 255 0 0
23.618834 33.4193 -61.098 255 0 0
23.618834 33.4193 -61.295 255 0 0
23.618834 33.4193 -61.493 255 0 0
23.618834 33.4193 -61.691 255 0 0
23.618834 33.4193 -61.889 255 0 0
23.618834 33.4193 -62.086 255 0 0
23.618834 33.4193 -62.284 255 0 0
23.807087 33.685364 -62.451 255 0 0
23.618834 33.4193 -62.68 255 0 0
23.618834 33.4193 -62.877 255 0 0
23.618834 33.4193 -63.075 255 0 0
23.618834 33.4193 -63.273 255 0 0
23.807087 33.685364 -63.439 255 0 0
23.807087 33.685364 -63.637 255 0 0
24.37137 34.484577 -63.741 255 0 0
23.994864 33.952457 -64.001 255 0 0
23.994864 33.952457 -64.198 255 0 0
24.183117 34.218517 -64.364 255 0 0
24.37137 34.484577 -64.53 255 0 0
24.55859 34.75016 -64.696 255 0 0
24.55859 34.75016 -64.893 255 0 0
24.746286 35.01471 -65.058 255 0 0
24.746286 35.01471 -65.255 255 0 0
24.933506 35.280293 -65.42 255 0 0
24.933506 35.280293 -65.618 255 0 0
25.680714 36.338097 -65.686 255 0 0
24.933506 35.280293 -66.012 255 0 0
25.121202 35.54484 -66.176 255 0 0
25.121202 35.54484 -66.373 255 0 0
25.121202 35.54484 -66.57 255 0 0
25.307388 35.809948 -66.734 255 0 0
25.121202 35.54484 -66.964 255 0 0
25.121202 35.54484 -67.161 255 0 0
25.121202 35.54484 -67.358 255 0 0
25.307388 35.809948 -67.522 255 0 0
25.307388 35.809948 -67.719 255 0 0
25.121202 35.54484 -67.949 255 0 0
25.307388 35.809948 -68.112 255 0 0
25.307388 35.809948 -68.309 255 0 0
25.494051 36.074024 -68.473 255 0 0
25.680714 36.338097 -68.636 255 0 0
25.867376 36.60217 -68.799 255 0 0
23.541792 33.8713 -38.736 255 0 0
23.727465 34.139862 -38.914 255 0 0
23.727465 34.139862 -39.112 255 0 0
23.541792 33.8713 -39.328 255 0 0
23.355633 33.60377 -39.545 255 0 0
23.355633 33.60377 -39.743 255 0 0
23.355633 33.60377 -39.941 255 0 0
23.355633 33.60377 -40.139 255 0 0
23.541792 33.8713 -40.317 255 0 0
23.355633 33.60377 -40.534 255 0 0
23.355633 33.60377 -40.732 255 0 0
23.355633 33.60377 -40.93 255 0 0
23.355633 33.60377 -41.127 255 0 0
23.355633 33.60377 -41.325 255 0 0
23.355633 33.60377 -41.523 255 0 0
23.355633 33.60377 -41.72 255 0 0
23.355633 33.60377 -41.918 255 0 0
23.355633 33.60377 -42.116 255 0 0
23.355633 33.60377 -42.314 255 0 0
23.355633 33.60377 -42.511 255 0 0
23.355633 33.60377 -42.709 255 0 0
23.355633 33.60377 -42.907 255 0 0
23.355633 33.60377 -43.105 255 0 0
23.355633 33.60377 -43.302 255 0 0
23.355633 33.60377 -43.5 255 0 0
23.541792 33.8713 -43.676 255 0 0
23.541792 33.8713 -43.874 255 0 0
23.541792 33.8713 -44.072 255 0 0
23.541792 33.8713 -44.269 255 0 0
23.355633 33.60377 -44.489 255 0 0
23.355633 33.60377 -44.686 255 0 0
23.355633 33.60377 -44.884 255 0 0
23.355633 33.60377 -45.082 255 0 0
23.355633 33.60377 -45.28 255 0 0
23.355633 33.60377 -45.477 255 0 0
23.541792 33.8713 -45.653 255 0 0
23.541792 33.8713 -45.85 255 0 0
23.355633 33.60377 -46.07 255 0 0
23.355633 33.60377 -46.268 255 0 0
23.355633 33.60377 -46.466 255 0 0
23.355633 33.60377 -46.664 255 0 0
23.355633 33.60377 -46.861 255 0 0
23.355633 33.60377 -47.059 255 0 0
23.355633 33.60377 -47.257 255 0 0
23.541792 33.8713 -47.431 255 0 0
23.541792 33.8713 -47.629 255 0 0
23.541792 33.8713 -47.826 255 0 0
23.541792 33.8713 -48.024 255 0 0
23.541792 33.8713 -48.222 255 0 0
23.541792 33.8713 -48.419 255 0 0
23.355633 33.60377 -48.641 255 0 0
23.355633 33.60377 -48.839 255 0 0
23.355633 33.60377 -49.036 255 0 0
23.355633 33.60377 -49.234 255 0 0
23.355633 33.60377 -49.432 255 0 0
23.355633 33.60377 -49.63 255 0 0
23.355633 33.60377 -49.827 255 0 0
23.355633 33.60377 -50.025 255 0 0
23.541792 33.8713 -50.198 255 0 0
23.541792 33.8713 -50.396 255 0 0
23.541792 33.8713 -50.593 255 0 0
23.541792 33.8713 -50.791 255 0 0
23.355633 33.60377 -51.014 255 0 0
23.355633 33.60377 -51.211 255 0 0
23.541792 33.8713 -51.384 255 0 0
23.541792 33.8713 -51.581 255 0 0
23.541792 33.8713 -51.779 255 0 0
23.541792 33.8713 -51.977 255 0 0
23.355633 33.60377 -52.2 255 0 0
23.355633 33.60377 -52.398 255 0 0
23.541792 33.8713 -52.57 255 0 0
23.541792 33.8713 -52.767 255 0 0
23.541792 33.8713 -52.965 255 0 0
23.541792 33.8713 -53.163 255 0 0
23.541792 33.8713 -53.36 255 0 0
23.541792 33.8713 -53.558 255 0 0
23.355633 33.60377 -53.782 255 0 0
23.355633 33.60377 -53.98 255 0 0
23.355633 33.60377 -54.177 255 0 0
23.355633 33.60377 -54.375 255 0 0
23.541792 33.8713 -54.546 255 0 0
23.355633 33.60377 -54.77 255 0 0
23.541792 33.8713 -54.941 255 0 0
23.355633 33.60377 -55.166 255 0 0
23.355633 33.60377 -55.364 255 0 0
23.541792 33.8713 -55.534 255 0 0
23.355633 33.60377 -55.759 255 0 0
23.355633 33.60377 -55.957 255 0 0
23.355633 33.60377 -56.155 255 0 0
23.355633 33.60377 -56.352 255 0 0
23.541792 33.8713 -56.522 255 0 0
23.541792 33.8713 -56.72 255 0 0
23.541792 33.8713 -56.917 255 0 0
23.541792 33.8713 -57.115 255 0 0
23.541792 33.8713 -57.313 255 0 0
23.355633 33.60377 -57.539 255 0 0
23.355633 33.60377 -57.736 255 0 0
23.541792 33.8713 -57.906 255 0 0
23.541792 33.8713 -58.103 255 0 0
23.541792 33.8713 -58.301 255 0 0
23.541792 33.8713 -58.499 255 0 0
23.541792 33.8713 -58.696 255 0 0
23.541792 33.8713 -58.894 255 0 0
23.541792 33.8713 -59.091 255 0 0
23.541792 33.8713 -59.289 255 0 0
23.541792 33.8713 -59.487 255 0 0
23.541792 33.8713 -59.684 255 0 0
23.541792 33.8713 -59.882 255 0 0
23.541792 33.8713 -60.08 255 0 0
23.541792 33.8713 -60.277 255 0 0
23.541792 33.8713 -60.475 255 0 0
23.541792 33.8713 -60.672 255 0 0
23.541792 33.8713 -60.87 255 0 0
23.541792 33.8713 -61.068 255 0 0
23.541792 33.8713 -61.265 255 0 0
23.541792 33.8713 -61.463 255 0 0
23.541792 33.8713 -61.661 255 0 0
23.541792 33.8713 -61.858 255 0 0
