ply
format ascii 1.0
element vertex 1314
property float x
property float y
property float z
property uchar red
property uchar green
property uchar blue
end_header
-1.5590177 74.41192 -68.534 255 0 0
-1.5590177 74.41192 -68.722 255 0 0
-1.5707004 75.00039 -68.845 255 0 0
-3.330204 63.553997 -38.958 255 0 0
-3.3141863 63.249393 -39.168 255 0 0
-3.3141863 63.249393 -39.359 255 0 0
-3.3141863 63.249393 -39.55 255 0 0
-3.2981687 62.944786 -39.76 255 0 0
-3.2981687 62.944786 -39.951 255 0 0
-3.2981687 62.944786 -40.142 255 0 0
-3.2981687 62.944786 -40.333 255 0 0
-3.2981687 62.944786 -40.524 255 0 0
-3.2981687 62.944786 -40.716 255 0 0
-3.2981687 62.944786 -40.907 255 0 0
-3.2981687 62.944786 -41.098 255 0 0
-3.2981687 62.944786 -41.289 255 0 0
-3.2981687 62.944786 -41.48 255 0 0
-3.2981687 62.944786 -41.671 255 0 0
-3.2981687 62.944786 -41.863 255 0 0
-3.2981687 62.944786 -42.054 255 0 0
-3.2981687 62.944786 -42.245 255 0 0
-3.2981687 62.944786 -42.436 255 0 0
-3.2981687 62.944786 -42.627 255 0 0
-3.2981687 62.944786 -42.818 255 0 0
-3.2981687 62.944786 -43.009 255 0 0
-3.2981687 62.944786 -43.201 255 0 0
-3.2981687 62.944786 -43.392 255 0 0
-3.2981687 62.944786 -43.583 255 0 0
-3.2981687 62.944786 -43.774 255 0 0
-3.2981687 62.944786 -43.965 255 0 0
-3.2981687 62.944786 -44.156 255 0 0
-3.3141863 63.249393 -44.326 255 0 0
-3.3141863 63.249393 -44.518 255 0 0
-3.2981687 62.944786 -44.73 255 0 0
-3.2981687 62.944786 -44.921 255 0 0
-3.3141863 63.249393 -45.091 255 0 0
-3.2981687 62.944786 -45.303 255 0 0
-3.2981687 62.944786 -45.494 255 0 0
-3.2981687 62.944786 -45.686 255 0 0
-3.2981687 62.944786 -45.877 255 0 0
-3.2981687 62.944786 -46.068 255 0 0
-3.2981687 62.944786 -46.259 255 0 0
-3.2981687 62.944786 -46.45 255 0 0
-3.2981687 62.944786 -46.641 255 0 0
-3.2981687 62.944786 -46.833 255 0 0
-3.2981687 62.944786 -47.024 255 0 0
-3.2981687 62.944786 -47.215 255 0 0
-3.2981687 62.944786 -47.406 255 0 0
-3.3141863 63.249393 -47.575 255 0 0
-3.3141863 63.249393 -47.766 255 0 0
-3.2981687 62.944786 -47.979 255 0 0
-3.2981687 62.944786 -48.171 255 0 0
-3.2981687 62.944786 -48.362 255 0 0
-3.2981687 62.944786 -48.553 255 0 0
-3.2981687 62.944786 -48.744 255 0 0
-3.2981687 62.944786 -48.935 255 0 0
-3.2981687 62.944786 -49.126 255 0 0
-3.2981687 62.944786 -49.318 255 0 0
-3.2981687 62.944786 -49.509 255 0 0
-3.2826676 62.639168 -49.723 255 0 0
-3.2981687 62.944786 -49.891 255 0 0
-3.2981687 62.944786 -50.082 255 0 0
-3.2981687 62.944786 -50.273 255 0 0
-3.2981687 62.944786 -50.464 255 0 0
-3.3141863 63.249393 -50.632 255 0 0
-3.3141863 63.249393 -50.823 255 0 0
-3.3141863 63.249393 -51.014 255 0 0
-3.3141863 63.249393 -51.205 255 0 0
-3.3141863 63.249393 -51.396 255 0 0
-3.3141863 63.249393 -51.587 255 0 0
-3.2981687 62.944786 -51.803 255 0 0
-3.3141863 63.249393 -51.969 255 0 0
-3.2981687 62.944786 -52.185 255 0 0
-3.2981687 62.944786 -52.376 255 0 0
-3.2981687 62.944786 -52.567 255 0 0
-3.2981687 62.944786 -52.758 255 0 0
-3.2981687 62.944786 -52.949 255 0 0
-3.2981687 62.944786 -53.141 255 0 0
-3.2981687 62.944786 -53.332 255 0 0
-3.2981687 62.944786 -53.523 255 0 0
-3.2981687 62.944786 -53.714 255 0 0
-3.2981687 62.944786 -53.905 255 0 0
-3.2981687 62.944786 -54.096 255 0 0
-3.2981687 62.944786 -54.288 255 0 0
-3.2981687 62.944786 -54.479 255 0 0
-3.3141863 63.249393 -54.644 255 0 0
-3.2981687 62.944786 -54.861 255 0 0
-3.3141863 63.249393 -55.026 255 0 0
-3.3141863 63.249393 -55.217 255 0 0
-3.3141863 63.249393 -55.408 255 0 0
-3.3141863 63.249393 -55.599 255 0 0
-3.3141863 63.249393 -55.79 255 0 0
-3.3141863 63.249393 -55.981 255 0 0
-3.3141863 63.249393 -56.172 255 0 0
-3.3141863 63.249393 -56.363 255 0 0
-3.3141863 63.249393 -56.554 255 0 0
-3.3141863 63.249393 -56.746 255 0 0
-3.3141863 63.249393 -56.937 255 0 0
-3.3141863 63.249393 -57.128 255 0 0
-3.3141863 63.249393 -57.319 255 0 0
-3.2981687 62.944786 -57.537 255 0 0
-3.3141863 63.249393 -57.701 255 0 0
-3.3141863 63.249393 -57.892 255 0 0
-3.3141863 63.249393 -58.083 255 0 0
-3.3141863 63.249393 -58.274 255 0 0
-3.3141863 63.249393 -58.465 255 0 0
-3.3141863 63.249393 -58.656 255 0 0
-3.3141863 63.249393 -58.847 255 0 0
-3.3141863 63.249393 -59.038 255 0 0
-3.3141863 63.249393 -59.229 255 0 0
-3.3141863 63.249393 -59.42 255 0 0
-3.3141863 63.249393 -59.611 255 0 0
-3.3141863 63.249393 -59.803 255 0 0
-3.3141863 63.249393 -59.994 255 0 0
-3.3141863 63.249393 -60.185 255 0 0
-3.3141863 63.249393 -60.376 255 0 0
-3.3141863 63.249393 -60.567 255 0 0
-3.3141863 63.249393 -60.758 255 0 0
-3.3141863 63.249393 -60.949 255 0 0
-3.3141863 63.249393 -61.14 255 0 0
-3.3141863 63.249393 -61.331 255 0 0
-3.3141863 63.249393 -61.522 255 0 0
-3.3141863 63.249393 -61.713 255 0 0
-3.3141863 63.249393 -61.904 255 0 0
-3.3141863 63.249393 -62.095 255 0 0
-3.3141863 63.249393 -62.286 255 0 0
-3.3141863 63.249393 -62.477 255 0 0
-3.3141863 63.249393 -62.668 255 0 0
-3.3141863 63.249393 -62.86 255 0 0
-3.3141863 63.249393 -63.051 255 0 0
-3.3141863 63.249393 -63.242 255 0 0
-3.3141863 63.249393 -63.433 255 0 0
-3.3141863 63.249393 -63.624 255 0 0
-3.3141863 63.249393 -63.815 255 0 0
-3.3141863 63.249393 -64.006 255 0 0
-3.3141863 63.249393 -64.197 255 0 0
-3.3141863 63.249393 -64.388 255 0 0
-3.3141863 63.249393 -64.579 255 0 0
-3.330204 63.553997 -64.739 255 0 0
-3.330204 63.553997 -64.93 255 0 0
-3.3467386 63.85759 -65.09 255 0 0
-3.3467386 63.85759 -65.281 255 0 0
-3.3467386 63.85759 -65.472 255 0 0
-3.3467386 63.85759 -65.663 255 0 0
-3.3467386 63.85759 -65.854 255 0 0
-3.3467386 63.85759 -66.045 255 0 0
-3.3627565 64.16219 -66.204 255 0 0
-3.3627565 64.16219 -66.395 255 0 0
-3.3782766 64.46527 -66.554 255 0 0
-3.3782766 64.46527 -66.745 255 0 0
-3.3782766 64.46527 -66.936 255 0 0
-3.3948112 64.76886 -67.095 255 0 0
-3.4258516 65.37501 -67.222 255 0 0
-3.4258516 65.37501 -67.412 255 0 0
-3.4418888 65.67707 -67.571 255 0 0
-3.9106638 74.62014 -67.939 255 0 0
-3.9257445 74.91405 -68.095 255 0 0
-3.941342 75.20693 -68.251 255 0 0
-3.9564228 75.50084 -68.406 255 0 0
-3.941342 75.20693 -68.626 255 0 0
-3.9564228 75.50084 -68.781 255 0 0
-3.9564228 75.50084 -68.969 255 0 0
-5.2736845 62.81013 -38.613 255 0 0
-5.32484 63.418034 -38.767 255 0 0
-5.2992625 63.114082 -38.977 255 0 0
-5.2992625 63.114082 -39.168 255 0 0
-5.2736845 62.81013 -39.378 255 0 0
-5.2736845 62.81013 -39.569 255 0 0
-5.2736845 62.81013 -39.76 255 0 0
-5.2736845 62.81013 -39.951 255 0 0
-5.248592 62.505146 -40.161 255 0 0
-5.2736845 62.81013 -40.333 255 0 0
-5.2736845 62.81013 -40.524 255 0 0
-5.2736845 62.81013 -40.716 255 0 0
-5.2736845 62.81013 -40.907 255 0 0
-5.2992625 63.114082 -41.078 255 0 0
-5.2992625 63.114082 -41.269 255 0 0
-5.2992625 63.114082 -41.461 255 0 0
-5.2736845 62.81013 -41.671 255 0 0
-5.2736845 62.81013 -41.863 255 0 0
-5.2736845 62.81013 -42.054 255 0 0
-5.2736845 62.81013 -42.245 255 0 0
-5.2736845 62.81013 -42.436 255 0 0
-5.2736845 62.81013 -42.627 255 0 0
-5.2736845 62.81013 -42.818 255 0 0
-5.2736845 62.81013 -43.009 255 0 0
-5.2736845 62.81013 -43.201 255 0 0
-5.2736845 62.81013 -43.392 255 0 0
-5.248592 62.505146 -43.604 255 0 0
-5.248592 62.505146 -43.795 255 0 0
-5.2736845 62.81013 -43.965 255 0 0
-5.2736845 62.81013 -44.156 255 0 0
-5.2736845 62.81013 -44.348 255 0 0
-5.2736845 62.81013 -44.539 255 0 0
-5.2736845 62.81013 -44.73 255 0 0
-5.2736845 62.81013 -44.921 255 0 0
-5.2736845 62.81013 -45.112 255 0 0
-5.2736845 62.81013 -45.303 255 0 0
-5.2736845 62.81013 -45.494 255 0 0
-5.2736845 62.81013 -45.686 255 0 0
-5.2736845 62.81013 -45.877 255 0 0
-5.2736845 62.81013 -46.068 255 0 0
-5.2736845 62.81013 -46.259 255 0 0
-5.2736845 62.81013 -46.45 255 0 0
-5.2736845 62.81013 -46.641 255 0 0
-5.2992625 63.114082 -46.81 255 0 0
-5.2992625 63.114082 -47.001 255 0 0
-5.2992625 63.114082 -47.192 255 0 0
-5.2992625 63.114082 -47.383 255 0 0
-5.2992625 63.114082 -47.575 255 0 0
-5.2992625 63.114082 -47.766 255 0 0
-5.2992625 63.114082 -47.957 255 0 0
-5.2992625 63.114082 -48.148 255 0 0
-5.2992625 63.114082 -48.339 255 0 0
-5.2992625 63.114082 -48.53 255 0 0
-5.2992625 63.114082 -48.721 255 0 0
-5.2992625 63.114082 -48.912 255 0 0
-5.2992625 63.114082 -49.103 255 0 0
-5.2992625 63.114082 -49.294 255 0 0
-5.2992625 63.114082 -49.485 255 0 0
-5.2992625 63.114082 -49.676 255 0 0
-5.2992625 63.114082 -49.867 255 0 0
-5.2992625 63.114082 -50.058 255 0 0
-5.2992625 63.114082 -50.249 255 0 0
-5.2992625 63.114082 -50.44 255 0 0
-5.2992625 63.114082 -50.632 255 0 0
-5.2992625 63.114082 -50.823 255 0 0
-5.2992625 63.114082 -51.014 255 0 0
-5.2992625 63.114082 -51.205 255 0 0
-5.2992625 63.114082 -51.396 255 0 0
-5.2992625 63.114082 -51.587 255 0 0
-5.2992625 63.114082 -51.778 255 0 0
-5.2736845 62.81013 -51.994 255 0 0
-5.2736845 62.81013 -52.185 255 0 0
-5.2992625 63.114082 -52.351 255 0 0
-5.2992625 63.114082 -52.542 255 0 0
-5.2992625 63.114082 -52.733 255 0 0
-5.2992625 63.114082 -52.924 255 0 0
-5.2992625 63.114082 -53.115 255 0 0
-5.2992625 63.114082 -53.306 255 0 0
-5.2992625 63.114082 -53.497 255 0 0
-5.2992625 63.114082 -53.689 255 0 0
-5.2992625 63.114082 -53.88 255 0 0
-5.2992625 63.114082 -54.071 255 0 0
-5.2992625 63.114082 -54.262 255 0 0
-5.2992625 63.114082 -54.453 255 0 0
-5.2992625 63.114082 -54.644 255 0 0
-5.2992625 63.114082 -54.835 255 0 0
-5.2992625 63.114082 -55.026 255 0 0
-5.2992625 63.114082 -55.217 255 0 0
-5.2992625 63.114082 -55.408 255 0 0
-5.2992625 63.114082 -55.599 255 0 0
-5.2992625 63.114082 -55.79 255 0 0
-5.2992625 63.114082 -55.981 255 0 0
-5.2992625 63.114082 -56.172 255 0 0
-5.2992625 63.114082 -56.363 255 0 0
-5.2992625 63.114082 -56.554 255 0 0
-5.2992625 63.114082 -56.746 255 0 0
-5.2992625 63.114082 -56.937 255 0 0
-5.2992625 63.114082 -57.128 255 0 0
-5.2992625 63.114082 -57.319 255 0 0
-5.2992625 63.114082 -57.51 255 0 0
-5.2992625 63.114082 -57.701 255 0 0
-5.2992625 63.114082 -57.892 255 0 0
-5.2992625 63.114082 -58.083 255 0 0
-5.2992625 63.114082 -58.274 255 0 0
-5.2992625 63.114082 -58.465 255 0 0
-5.2992625 63.114082 -58.656 255 0 0
-5.2992625 63.114082 -58.847 255 0 0
-5.2992625 63.114082 -59.038 255 0 0
-5.2992625 63.114082 -59.229 255 0 0
-5.2992625 63.114082 -59.42 255 0 0
-5.2992625 63.114082 -59.611 255 0 0
-5.2992625 63.114082 -59.803 255 0 0
-5.2992625 63.114082 -59.994 255 0 0
-5.2992625 63.114082 -60.185 255 0 0
-5.2992625 63.114082 -60.376 255 0 0
-5.2992625 63.114082 -60.567 255 0 0
-5.2992625 63.114082 -60.758 255 0 0
-5.2992625 63.114082 -60.949 255 0 0
-5.2992625 63.114082 -61.14 255 0 0
-5.2992625 63.114082 -61.331 255 0 0
-5.2992625 63.114082 -61.522 255 0 0
-5.2992625 63.114082 -61.713 255 0 0
-5.2992625 63.114082 -61.904 255 0 0
-5.2992625 63.114082 -62.095 255 0 0
-5.2992625 63.114082 -62.286 255 0 0
-5.2992625 63.114082 -62.477 255 0 0
-5.2992625 63.114082 -62.668 255 0 0
-5.2992625 63.114082 -62.86 255 0 0
-5.2992625 63.114082 -63.051 255 0 0
-5.2992625 63.114082 -63.242 255 0 0
-5.2992625 63.114082 -63.433 255 0 0
-5.2992625 63.114082 -63.624 255 0 0
-5.2992625 63.114082 -63.815 255 0 0
-5.2992625 63.114082 -64.006 255 0 0
-5.2992625 63.114082 -64.197 255 0 0
-5.2992625 63.114082 -64.388 255 0 0
-5.2992625 63.114082 -64.579 255 0 0
-5.2992625 63.114082 -64.77 255 0 0
-5.2992625 63.114082 -64.961 255 0 0
-5.2992625 63.114082 -65.152 255 0 0
-5.2992625 63.114082 -65.343 255 0 0
-5.2992625 63.114082 -65.534 255 0 0
-5.2992625 63.114082 -65.725 255 0 0
-5.2992625 63.114082 -65.917 255 0 0
-5.2992625 63.114082 -66.108 255 0 0
-5.2992625 63.114082 -66.299 255 0 0
-5.2992625 63.114082 -66.49 255 0 0
-5.2992625 63.114082 -66.681 255 0 0
-5.32484 63.418034 -66.84 255 0 0
-5.3764806 64.02491 -66.968 255 0 0
-5.4015126 64.32735 -67.127 255 0 0
-5.427575 64.630264 -67.285 255 0 0
-5.4526076 64.93271 -67.444 255 0 0
-5.554191 66.139366 -67.507 255 0 0
-6.2769146 74.75377 -67.907 255 0 0
-6.2769146 74.75377 -68.095 255 0 0
-6.3017044 75.04603 -68.251 255 0 0
-6.3260093 75.33931 -68.406 255 0 0
-6.3260093 75.33931 -68.594 255 0 0
-6.3260093 75.33931 -68.781 255 0 0
-6.3260093 75.33931 -68.969 255 0 0
-7.243996 62.613487 -38.613 255 0 0
-7.243996 62.613487 -38.804 255 0 0
-7.209336 62.309444 -39.014 255 0 0
-7.1742234 62.006443 -39.224 255 0 0
-7.1742234 62.006443 -39.415 255 0 0
-7.1742234 62.006443 -39.606 255 0 0
-7.1742234 62.006443 -39.798 255 0 0
-7.1742234 62.006443 -39.989 255 0 0
-7.1742234 62.006443 -40.18 255 0 0
-7.1742234 62.006443 -40.372 255 0 0
-7.384898 63.824436 -40.448 255 0 0
-7.384898 63.824436 -40.638 255 0 0
-7.384898 63.824436 -40.829 255 0 0
-7.384898 63.824436 -41.02 255 0 0
-7.384898 63.824436 -41.211 255 0 0
-7.384898 63.824436 -41.402 255 0 0
-7.384898 63.824436 -41.592 255 0 0
-7.384898 63.824436 -41.783 255 0 0
-7.384898 63.824436 -41.974 255 0 0
-7.384898 63.824436 -42.165 255 0 0
-7.384898 63.824436 -42.356 255 0 0
-7.384898 63.824436 -42.546 255 0 0
-7.384898 63.824436 -42.737 255 0 0
-7.384898 63.824436 -42.928 255 0 0
-7.349786 63.52144 -43.139 255 0 0
-7.384898 63.824436 -43.309 255 0 0
-7.349786 63.52144 -43.521 255 0 0
-7.384898 63.824436 -43.691 255 0 0
-7.384898 63.824436 -43.882 255 0 0
-7.384898 63.824436 -44.073 255 0 0
-7.349786 63.52144 -44.284 255 0 0
-7.349786 63.52144 -44.475 255 0 0
-7.384898 63.824436 -44.645 255 0 0
-7.1742234 62.006443 -44.964 255 0 0
-7.1742234 62.006443 -45.155 255 0 0
-7.384898 63.824436 -45.217 255 0 0
-7.384898 63.824436 -45.408 255 0 0
-7.384898 63.824436 -45.599 255 0 0
-7.384898 63.824436 -45.79 255 0 0
-7.384898 63.824436 -45.981 255 0 0
-7.384898 63.824436 -46.171 255 0 0
-7.349786 63.52144 -46.384 255 0 0
-7.349786 63.52144 -46.575 255 0 0
-7.349786 63.52144 -46.766 255 0 0
-7.349786 63.52144 -46.957 255 0 0
-7.384898 63.824436 -47.125 255 0 0
-7.384898 63.824436 -47.316 255 0 0
-7.384898 63.824436 -47.507 255 0 0
-7.384898 63.824436 -47.698 255 0 0
-7.384898 63.824436 -47.888 255 0 0
-7.384898 63.824436 -48.079 255 0 0
-7.384898 63.824436 -48.27 255 0 0
-7.384898 63.824436 -48.461 255 0 0
-7.384898 63.824436 -48.652 255 0 0
-7.384898 63.824436 -48.842 255 0 0
-7.384898 63.824436 -49.033 255 0 0
-7.384898 63.824436 -49.224 255 0 0
-7.384898 63.824436 -49.415 255 0 0
-7.384898 63.824436 -49.606 255 0 0
-7.384898 63.824436 -49.796 255 0 0
-7.384898 63.824436 -49.987 255 0 0
-7.349786 63.52144 -50.202 255 0 0
-7.349786 63.52144 -50.393 255 0 0
-7.349786 63.52144 -50.584 255 0 0
-7.349786 63.52144 -50.774 255 0 0
-7.349786 63.52144 -50.965 255 0 0
-7.349786 63.52144 -51.156 255 0 0
-7.349786 63.52144 -51.347 255 0 0
-7.209336 62.309444 -51.636 255 0 0
-7.384898 63.824436 -51.704 255 0 0
-7.384898 63.824436 -51.895 255 0 0
-7.384898 63.824436 -52.086 255 0 0
-7.384898 63.824436 -52.277 255 0 0
-7.384898 63.824436 -52.467 255 0 0
-7.384898 63.824436 -52.658 255 0 0
-7.1742234 62.006443 -53.0 255 0 0
-7.1742234 62.006443 -53.191 255 0 0
-7.1742234 62.006443 -53.382 255 0 0
-7.1742234 62.006443 -53.574 255 0 0
-7.1742234 62.006443 -53.765 255 0 0
-7.1742234 62.006443 -53.956 255 0 0
-7.1742234 62.006443 -54.148 255 0 0
-7.1742234 62.006443 -54.339 255 0 0
-7.1742234 62.006443 -54.53 255 0 0
-7.384898 63.824436 -54.566 255 0 0
-7.384898 63.824436 -54.757 255 0 0
-7.209336 62.309444 -55.078 255 0 0
-7.209336 62.309444 -55.27 255 0 0
-7.209336 62.309444 -55.461 255 0 0
-7.209336 62.309444 -55.652 255 0 0
-7.209336 62.309444 -55.843 255 0 0
-7.209336 62.309444 -56.034 255 0 0
-7.209336 62.309444 -56.226 255 0 0
-7.209336 62.309444 -56.417 255 0 0
-7.209336 62.309444 -56.608 255 0 0
-7.209336 62.309444 -56.799 255 0 0
-7.209336 62.309444 -56.991 255 0 0
-7.209336 62.309444 -57.182 255 0 0
-7.209336 62.309444 -57.373 255 0 0
-7.209336 62.309444 -57.564 255 0 0
-7.209336 62.309444 -57.756 255 0 0
-7.209336 62.309444 -57.947 255 0 0
-7.209336 62.309444 -58.138 255 0 0
-7.209336 62.309444 -58.329 255 0 0
-7.209336 62.309444 -58.521 255 0 0
-7.209336 62.309444 -58.712 255 0 0
-7.209336 62.309444 -58.903 255 0 0
-7.209336 62.309444 -59.094 255 0 0
-7.209336 62.309444 -59.286 255 0 0
-7.209336 62.309444 -59.477 255 0 0
-7.209336 62.309444 -59.668 255 0 0
-7.209336 62.309444 -59.859 255 0 0
-7.209336 62.309444 -60.051 255 0 0
-7.209336 62.309444 -60.242 255 0 0
-7.209336 62.309444 -60.433 255 0 0
-7.209336 62.309444 -60.624 255 0 0
-7.209336 62.309444 -60.816 255 0 0
-7.209336 62.309444 -61.007 255 0 0
-7.209336 62.309444 -61.198 255 0 0
-7.209336 62.309444 -61.389 255 0 0
-7.209336 62.309444 -61.581 255 0 0
-7.209336 62.309444 -61.772 255 0 0
-7.209336 62.309444 -61.963 255 0 0
-7.209336 62.309444 -62.154 255 0 0
-7.209336 62.309444 -62.346 255 0 0
-7.209336 62.309444 -62.537 255 0 0
-7.209336 62.309444 -62.728 255 0 0
-7.209336 62.309444 -62.919 255 0 0
-7.209336 62.309444 -63.111 255 0 0
-7.209336 62.309444 -63.302 255 0 0
-7.209336 62.309444 -63.493 255 0 0
-7.209336 62.309444 -63.684 255 0 0
-7.209336 62.309444 -63.876 255 0 0
-7.209336 62.309444 -64.067 255 0 0
-7.209336 62.309444 -64.258 255 0 0
-7.209336 62.309444 -64.449 255 0 0
-7.209336 62.309444 -64.64 255 0 0
-7.209336 62.309444 -64.832 255 0 0
-7.209336 62.309444 -65.023 255 0 0
-7.209336 62.309444 -65.214 255 0 0
-7.209336 62.309444 -65.405 255 0 0
-7.209336 62.309444 -65.597 255 0 0
-7.209336 62.309444 -65.788 255 0 0
-7.209336 62.309444 -65.979 255 0 0
-7.209336 62.309444 -66.17 255 0 0
-7.209336 62.309444 -66.362 255 0 0
-7.209336 62.309444 -66.553 255 0 0
-7.209336 62.309444 -66.744 255 0 0
-7.3142214 63.219482 -66.84 255 0 0
-7.349786 63.52144 -66.999 255 0 0
-7.4194183 64.12594 -67.127 255 0 0
-7.4549828 64.427895 -67.285 255 0 0
-7.4895024 64.72939 -67.444 255 0 0
-7.593966 65.63181 -67.539 255 0 0
-7.5589943 65.33135 -67.761 255 0 0
-7.593966 65.63181 -67.919 255 0 0
-7.628938 65.93227 -68.077 255 0 0
-7.628938 65.93227 -68.267 255 0 0
-8.62189 74.51972 -67.907 255 0 0
-8.655848 74.81105 -68.063 255 0 0
-8.689353 75.10343 -68.219 255 0 0
-8.72331 75.39477 -68.374 255 0 0
-8.72331 75.39477 -68.562 255 0 0
-8.689353 75.10343 -68.781 255 0 0
-8.72331 75.39477 -68.936 255 0 0
-9.251772 62.656796 -38.786 255 0 0
-9.207159 62.35505 -38.995 255 0 0
-9.162966 62.052246 -39.205 255 0 0
-9.162966 62.052246 -39.396 255 0 0
-9.162966 62.052246 -39.588 255 0 0
-9.162966 62.052246 -39.779 255 0 0
-9.118353 61.7505 -39.989 255 0 0
-9.118353 61.7505 -40.18 255 0 0
-9.118353 61.7505 -40.372 255 0 0
-9.118353 61.7505 -40.563 255 0 0
-9.118353 61.7505 -40.754 255 0 0
-9.118353 61.7505 -40.946 255 0 0
-9.118353 61.7505 -41.137 255 0 0
-9.118353 61.7505 -41.328 255 0 0
-9.118353 61.7505 -41.52 255 0 0
-9.162966 62.052246 -41.691 255 0 0
-9.162966 62.052246 -41.882 255 0 0
-9.118353 61.7505 -42.094 255 0 0
-9.118353 61.7505 -42.285 255 0 0
-9.118353 61.7505 -42.476 255 0 0
-9.118353 61.7505 -42.668 255 0 0
-9.162966 62.052246 -42.839 255 0 0
-9.162966 62.052246 -43.03 255 0 0
-9.162966 62.052246 -43.221 255 0 0
-9.162966 62.052246 -43.412 255 0 0
-9.162966 62.052246 -43.604 255 0 0
-9.162966 62.052246 -43.795 255 0 0
-9.162966 62.052246 -43.986 255 0 0
-9.162966 62.052246 -44.177 255 0 0
-9.162966 62.052246 -44.369 255 0 0
-9.162966 62.052246 -44.56 255 0 0
-9.162966 62.052246 -44.751 255 0 0
-9.162966 62.052246 -44.942 255 0 0
-9.162966 62.052246 -45.134 255 0 0
-9.162966 62.052246 -45.325 255 0 0
-9.162966 62.052246 -45.516 255 0 0
-9.162966 62.052246 -45.707 255 0 0
-9.162966 62.052246 -45.899 255 0 0
-9.162966 62.052246 -46.09 255 0 0
-9.162966 62.052246 -46.281 255 0 0
-9.162966 62.052246 -46.472 255 0 0
-9.162966 62.052246 -46.664 255 0 0
-9.162966 62.052246 -46.855 255 0 0
-9.162966 62.052246 -47.046 255 0 0
-9.162966 62.052246 -47.237 255 0 0
-9.162966 62.052246 -47.429 255 0 0
-9.162966 62.052246 -47.62 255 0 0
-9.162966 62.052246 -47.811 255 0 0
-9.162966 62.052246 -48.002 255 0 0
-9.162966 62.052246 -48.193 255 0 0
-9.162966 62.052246 -48.385 255 0 0
-9.162966 62.052246 -48.576 255 0 0
-9.162966 62.052246 -48.767 255 0 0
-9.162966 62.052246 -48.958 255 0 0
-9.162966 62.052246 -49.15 255 0 0
-9.162966 62.052246 -49.341 255 0 0
-9.162966 62.052246 -49.532 255 0 0
-9.162966 62.052246 -49.723 255 0 0
-9.162966 62.052246 -49.915 255 0 0
-9.162966 62.052246 -50.106 255 0 0
-9.162966 62.052246 -50.297 255 0 0
-9.162966 62.052246 -50.488 255 0 0
-9.162966 62.052246 -50.68 255 0 0
-9.162966 62.052246 -50.871 255 0 0
-9.162966 62.052246 -51.062 255 0 0
-9.162966 62.052246 -51.253 255 0 0
-9.162966 62.052246 -51.445 255 0 0
-9.162966 62.052246 -51.636 255 0 0
-9.162966 62.052246 -51.827 255 0 0
-9.162966 62.052246 -52.018 255 0 0
-9.162966 62.052246 -52.21 255 0 0
-9.162966 62.052246 -52.401 255 0 0
-9.162966 62.052246 -52.592 255 0 0
-9.162966 62.052246 -52.783 255 0 0
-9.162966 62.052246 -52.975 255 0 0
-9.162966 62.052246 -53.166 255 0 0
-9.162966 62.052246 -53.357 255 0 0
-9.162966 62.052246 -53.548 255 0 0
-9.162966 62.052246 -53.74 255 0 0
-9.162966 62.052246 -53.931 255 0 0
-9.162966 62.052246 -54.122 255 0 0
-9.162966 62.052246 -54.313 255 0 0
-9.162966 62.052246 -54.505 255 0 0
-9.341415 63.25923 -54.592 255 0 0
-9.341415 63.25923 -54.783 255 0 0
-9.341415 63.25923 -54.974 255 0 0
-9.341415 63.25923 -55.165 255 0 0
-9.341415 63.25923 -55.356 255 0 0
-9.341415 63.25923 -55.546 255 0 0
-9.207159 62.35505 -55.817 255 0 0
-9.207159 62.35505 -56.008 255 0 0
-9.341415 63.25923 -56.119 255 0 0
-9.341415 63.25923 -56.31 255 0 0
-9.207159 62.35505 -56.581 255 0 0
-9.207159 62.35505 -56.772 255 0 0
-9.207159 62.35505 -56.964 255 0 0
-9.341415 63.25923 -57.073 255 0 0
-9.341415 63.25923 -57.264 255 0 0
-9.341415 63.25923 -57.455 255 0 0
-9.341415 63.25923 -57.646 255 0 0
-9.341415 63.25923 -57.837 255 0 0
-9.341415 63.25923 -58.028 255 0 0
-9.341415 63.25923 -58.219 255 0 0
-9.341415 63.25923 -58.41 255 0 0
-9.341415 63.25923 -58.601 255 0 0
-9.207159 62.35505 -58.875 255 0 0
-9.207159 62.35505 -59.066 255 0 0
-9.207159 62.35505 -59.257 255 0 0
-9.207159 62.35505 -59.449 255 0 0
-9.207159 62.35505 -59.64 255 0 0
-9.207159 62.35505 -59.831 255 0 0
-9.207159 62.35505 -60.022 255 0 0
-9.207159 62.35505 -60.213 255 0 0
-9.207159 62.35505 -60.404 255 0 0
-9.207159 62.35505 -60.596 255 0 0
-9.207159 62.35505 -60.787 255 0 0
-9.207159 62.35505 -60.978 255 0 0
-9.207159 62.35505 -61.169 255 0 0
-9.386028 63.560978 -61.244 255 0 0
-9.386028 63.560978 -61.435 255 0 0
-9.207159 62.35505 -61.742 255 0 0
-9.207159 62.35505 -61.934 255 0 0
-9.207159 62.35505 -62.125 255 0 0
-9.207159 62.35505 -62.316 255 0 0
-9.207159 62.35505 -62.507 255 0 0
-9.207159 62.35505 -62.698 255 0 0
-9.207159 62.35505 -62.889 255 0 0
-9.341415 63.25923 -62.991 255 0 0
-9.341415 63.25923 -63.182 255 0 0
-9.341415 63.25923 -63.373 255 0 0
-9.341415 63.25923 -63.563 255 0 0
-9.341415 63.25923 -63.754 255 0 0
-9.341415 63.25923 -63.945 255 0 0
-9.341415 63.25923 -64.136 255 0 0
-9.207159 62.35505 -64.419 255 0 0
-9.207159 62.35505 -64.61 255 0 0
-9.207159 62.35505 -64.801 255 0 0
-9.207159 62.35505 -64.992 255 0 0
-9.207159 62.35505 -65.183 255 0 0
-9.207159 62.35505 -65.374 255 0 0
-9.207159 62.35505 -65.566 255 0 0
-9.207159 62.35505 -65.757 255 0 0
-9.207159 62.35505 -65.948 255 0 0
-9.207159 62.35505 -66.139 255 0 0
-9.207159 62.35505 -66.33 255 0 0
-9.207159 62.35505 -66.521 255 0 0
-9.386028 63.560978 -66.586 255 0 0
-9.341415 63.25923 -66.808 255 0 0
-9.341415 63.25923 -66.999 255 0 0
-9.475033 64.161934 -67.095 255 0 0
-9.519007 64.462204 -67.253 255 0 0
-9.651764 65.36089 -67.348 255 0 0
-9.651764 65.36089 -67.539 255 0 0
-9.73949 65.95889 -67.665 255 0 0
-9.6961565 65.6601 -67.887 255 0 0
-9.6961565 65.6601 -68.077 255 0 0
-10.958356 74.21213 -67.907 255 0 0
-11.044121 74.793434 -68.031 255 0 0
-11.087213 75.08356 -68.187 255 0 0
-11.087213 75.08356 -68.374 255 0 0
-11.044121 74.793434 -68.594 255 0 0
-11.087213 75.08356 -68.749 255 0 0
-11.087213 75.08356 -68.936 255 0 0
-11.377895 63.23479 -38.731 255 0 0
-11.323827 62.934597 -38.94 255 0 0
-11.323827 62.934597 -39.131 255 0 0
-11.215303 62.335274 -39.359 255 0 0
-11.269373 62.63547 -39.531 255 0 0
-11.269373 62.63547 -39.722 255 0 0
-11.269373 62.63547 -39.913 255 0 0
-11.269373 62.63547 -40.104 255 0 0
-11.269373 62.63547 -40.295 255 0 0
-11.269373 62.63547 -40.486 255 0 0
-11.269373 62.63547 -40.677 255 0 0
-11.269373 62.63547 -40.868 255 0 0
-11.269373 62.63547 -41.059 255 0 0
-11.323827 62.934597 -41.23 255 0 0
-11.269373 62.63547 -41.441 255 0 0
-11.269373 62.63547 -41.632 255 0 0
-11.269373 62.63547 -41.823 255 0 0
-11.269373 62.63547 -42.014 255 0 0
-11.269373 62.63547 -42.205 255 0 0
-11.269373 62.63547 -42.396 255 0 0
-11.269373 62.63547 -42.587 255 0 0
-11.269373 62.63547 -42.778 255 0 0
-11.269373 62.63547 -42.969 255 0 0
-11.269373 62.63547 -43.16 255 0 0
-11.323827 62.934597 -43.33 255 0 0
-11.269373 62.63547 -43.542 255 0 0
-11.269373 62.63547 -43.733 255 0 0
-11.269373 62.63547 -43.924 255 0 0
-11.269373 62.63547 -44.114 255 0 0
-11.269373 62.63547 -44.305 255 0 0
-11.269373 62.63547 -44.496 255 0 0
-11.269373 62.63547 -44.687 255 0 0
-11.269373 62.63547 -44.878 255 0 0
-11.269373 62.63547 -45.069 255 0 0
-11.269373 62.63547 -45.26 255 0 0
-11.269373 62.63547 -45.451 255 0 0
-11.269373 62.63547 -45.642 255 0 0
-11.269373 62.63547 -45.833 255 0 0
-11.269373 62.63547 -46.024 255 0 0
-11.269373 62.63547 -46.215 255 0 0
-11.269373 62.63547 -46.406 255 0 0
-11.269373 62.63547 -46.597 255 0 0
-11.269373 62.63547 -46.788 255 0 0
-11.269373 62.63547 -46.979 255 0 0
-11.269373 62.63547 -47.17 255 0 0
-11.269373 62.63547 -47.361 255 0 0
-11.269373 62.63547 -47.552 255 0 0
-11.269373 62.63547 -47.743 255 0 0
-11.269373 62.63547 -47.934 255 0 0
-11.269373 62.63547 -48.125 255 0 0
-11.269373 62.63547 -48.316 255 0 0
-11.269373 62.63547 -48.507 255 0 0
-11.269373 62.63547 -48.698 255 0 0
-11.269373 62.63547 -48.889 255 0 0
-11.269373 62.63547 -49.08 255 0 0
-11.269373 62.63547 -49.271 255 0 0
-11.269373 62.63547 -49.462 255 0 0
-11.269373 62.63547 -49.653 255 0 0
-11.269373 62.63547 -49.844 255 0 0
-11.269373 62.63547 -50.035 255 0 0
-11.269373 62.63547 -50.226 255 0 0
-11.269373 62.63547 -50.417 255 0 0
-11.269373 62.63547 -50.608 255 0 0
-11.269373 62.63547 -50.798 255 0 0
-11.269373 62.63547 -50.989 255 0 0
-11.269373 62.63547 -51.18 255 0 0
-11.269373 62.63547 -51.371 255 0 0
-11.269373 62.63547 -51.562 255 0 0
-11.269373 62.63547 -51.753 255 0 0
-11.269373 62.63547 -51.944 255 0 0
-11.269373 62.63547 -52.135 255 0 0
-11.269373 62.63547 -52.326 255 0 0
-11.269373 62.63547 -52.517 255 0 0
-11.269373 62.63547 -52.708 255 0 0
-11.269373 62.63547 -52.899 255 0 0
-11.269373 62.63547 -53.09 255 0 0
-11.269373 62.63547 -53.281 255 0 0
-11.269373 62.63547 -53.472 255 0 0
-11.269373 62.63547 -53.663 255 0 0
-11.269373 62.63547 -53.854 255 0 0
-11.269373 62.63547 -54.045 255 0 0
-11.269373 62.63547 -54.236 255 0 0
-11.269373 62.63547 -54.427 255 0 0
-11.269373 62.63547 -54.618 255 0 0
-11.269373 62.63547 -54.809 255 0 0
-11.269373 62.63547 -55.0 255 0 0
-11.269373 62.63547 -55.191 255 0 0
-11.269373 62.63547 -55.382 255 0 0
-11.269373 62.63547 -55.573 255 0 0
-11.269373 62.63547 -55.764 255 0 0
-11.269373 62.63547 -55.955 255 0 0
-11.269373 62.63547 -56.146 255 0 0
-11.269373 62.63547 -56.337 255 0 0
-11.269373 62.63547 -56.528 255 0 0
-11.269373 62.63547 -56.719 255 0 0
-11.269373 62.63547 -56.91 255 0 0
-11.269373 62.63547 -57.101 255 0 0
-11.269373 62.63547 -57.292 255 0 0
-11.269373 62.63547 -57.483 255 0 0
-11.269373 62.63547 -57.673 255 0 0
-11.269373 62.63547 -57.864 255 0 0
-11.323827 62.934597 -58.028 255 0 0
-11.269373 62.63547 -58.246 255 0 0
-11.269373 62.63547 -58.437 255 0 0
-11.323827 62.934597 -58.601 255 0 0
-11.323827 62.934597 -58.791 255 0 0
-11.323827 62.934597 -58.982 255 0 0
-11.323827 62.934597 -59.173 255 0 0
-11.323827 62.934597 -59.364 255 0 0
-11.323827 62.934597 -59.555 255 0 0
-11.323827 62.934597 -59.746 255 0 0
-11.323827 62.934597 -59.937 255 0 0
-11.323827 62.934597 -60.128 255 0 0
-11.323827 62.934597 -60.318 255 0 0
-11.323827 62.934597 -60.509 255 0 0
-11.323827 62.934597 -60.7 255 0 0
-11.323827 62.934597 -60.891 255 0 0
-11.323827 62.934597 -61.082 255 0 0
-11.269373 62.63547 -61.302 255 0 0
-11.323827 62.934597 -61.464 255 0 0
-11.323827 62.934597 -61.655 255 0 0
-11.323827 62.934597 -61.846 255 0 0
-11.323827 62.934597 -62.036 255 0 0
-11.323827 62.934597 -62.227 255 0 0
-11.323827 62.934597 -62.418 255 0 0
-11.323827 62.934597 -62.609 255 0 0
-11.323827 62.934597 -62.8 255 0 0
-11.323827 62.934597 -62.991 255 0 0
-11.323827 62.934597 -63.182 255 0 0
-11.323827 62.934597 -63.373 255 0 0
-11.323827 62.934597 -63.563 255 0 0
-11.323827 62.934597 -63.754 255 0 0
-11.323827 62.934597 -63.945 255 0 0
-11.323827 62.934597 -64.136 255 0 0
-11.323827 62.934597 -64.327 255 0 0
-11.323827 62.934597 -64.518 255 0 0
-11.323827 62.934597 -64.709 255 0 0
-11.323827 62.934597 -64.9 255 0 0
-11.323827 62.934597 -65.09 255 0 0
-11.323827 62.934597 -65.281 255 0 0
-11.323827 62.934597 -65.472 255 0 0
-11.377895 63.23479 -65.632 255 0 0
-11.377895 63.23479 -65.823 255 0 0
-11.377895 63.23479 -66.014 255 0 0
-11.377895 63.23479 -66.204 255 0 0
-11.431278 63.53353 -66.364 255 0 0
-11.431278 63.53353 -66.554 255 0 0
-11.485733 63.832657 -66.713 255 0 0
-11.539116 64.13139 -66.872 255 0 0
-11.539116 64.13139 -67.063 255 0 0
-11.592499 64.43014 -67.222 255 0 0
-13.440173 74.69825 -68.0 255 0 0
-13.440173 74.69825 -68.187 255 0 0
-13.492357 74.98688 -68.343 255 0 0
-13.543469 75.275116 -68.498 255 0 0
-13.543469 75.275116 -68.685 255 0 0
-13.492357 74.98688 -68.904 255 0 0
-13.1677685 61.952236 -38.404 255 0 0
-13.231239 62.250584 -38.576 255 0 0
-13.1677685 61.952236 -38.786 255 0 0
-13.1677685 61.952236 -38.977 255 0 0
-13.1677685 61.952236 -39.168 255 0 0
-13.231239 62.250584 -39.34 255 0 0
-13.1677685 61.952236 -39.55 255 0 0
-13.1677685 61.952236 -39.741 255 0 0
-13.1677685 61.952236 -39.932 255 0 0
-13.1677685 61.952236 -40.123 255 0 0
-13.1677685 61.952236 -40.314 255 0 0
-13.1677685 61.952236 -40.505 255 0 0
-13.1677685 61.952236 -40.696 255 0 0
-13.1677685 61.952236 -40.887 255 0 0
-13.1677685 61.952236 -41.078 255 0 0
-13.1677685 61.952236 -41.269 255 0 0
-13.1677685 61.952236 -41.461 255 0 0
-13.1677685 61.952236 -41.652 255 0 0
-13.1677685 61.952236 -41.843 255 0 0
-13.1677685 61.952236 -42.034 255 0 0
-13.1677685 61.952236 -42.225 255 0 0
-13.1677685 61.952236 -42.416 255 0 0
-13.1677685 61.952236 -42.607 255 0 0
-13.1677685 61.952236 -42.798 255 0 0
-13.1677685 61.952236 -42.989 255 0 0
-13.1677685 61.952236 -43.18 255 0 0
-13.1677685 61.952236 -43.371 255 0 0
-13.1677685 61.952236 -43.562 255 0 0
-13.1677685 61.952236 -43.753 255 0 0
-13.1677685 61.952236 -43.944 255 0 0
-13.1677685 61.952236 -44.135 255 0 0
-13.1677685 61.952236 -44.326 255 0 0
-13.1677685 61.952236 -44.518 255 0 0
-13.1677685 61.952236 -44.709 255 0 0
-13.1677685 61.952236 -44.9 255 0 0
-13.1677685 61.952236 -45.091 255 0 0
-13.1677685 61.952236 -45.282 255 0 0
-13.1677685 61.952236 -45.473 255 0 0
-13.1677685 61.952236 -45.664 255 0 0
-13.1677685 61.952236 -45.855 255 0 0
-13.1677685 61.952236 -46.046 255 0 0
-13.1677685 61.952236 -46.237 255 0 0
-13.1677685 61.952236 -46.428 255 0 0
-13.1677685 61.952236 -46.619 255 0 0
-13.1677685 61.952236 -46.81 255 0 0
-13.1677685 61.952236 -47.001 255 0 0
-13.1677685 61.952236 -47.192 255 0 0
-13.1677685 61.952236 -47.383 255 0 0
-13.1677685 61.952236 -47.575 255 0 0
-13.1677685 61.952236 -47.766 255 0 0
-13.1677685 61.952236 -47.957 255 0 0
-13.1677685 61.952236 -48.148 255 0 0
-13.1677685 61.952236 -48.339 255 0 0
-13.1677685 61.952236 -48.53 255 0 0
-13.1677685 61.952236 -48.721 255 0 0
-13.1677685 61.952236 -48.912 255 0 0
-13.1677685 61.952236 -49.103 255 0 0
-13.1677685 61.952236 -49.294 255 0 0
-13.1677685 61.952236 -49.485 255 0 0
-13.1677685 61.952236 -49.676 255 0 0
-13.1677685 61.952236 -49.867 255 0 0
-13.1677685 61.952236 -50.058 255 0 0
-13.1677685 61.952236 -50.249 255 0 0
-13.1677685 61.952236 -50.44 255 0 0
-13.1677685 61.952236 -50.632 255 0 0
-13.1677685 61.952236 -50.823 255 0 0
-13.1677685 61.952236 -51.014 255 0 0
-13.1677685 61.952236 -51.205 255 0 0
-13.1677685 61.952236 -51.396 255 0 0
-13.1677685 61.952236 -51.587 255 0 0
-13.1677685 61.952236 -51.778 255 0 0
-13.1677685 61.952236 -51.969 255 0 0
-13.1677685 61.952236 -52.16 255 0 0
-13.1677685 61.952236 -52.351 255 0 0
-13.1677685 61.952236 -52.542 255 0 0
-13.1677685 61.952236 -52.733 255 0 0
-13.1677685 61.952236 -52.924 255 0 0
-13.1677685 61.952236 -53.115 255 0 0
-13.1677685 61.952236 -53.306 255 0 0
-13.1677685 61.952236 -53.497 255 0 0
-13.1677685 61.952236 -53.689 255 0 0
-13.1677685 61.952236 -53.88 255 0 0
-13.1677685 61.952236 -54.071 255 0 0
-13.1677685 61.952236 -54.262 255 0 0
-13.1677685 61.952236 -54.453 255 0 0
-13.1677685 61.952236 -54.644 255 0 0
-13.1677685 61.952236 -54.835 255 0 0
-13.1677685 61.952236 -55.026 255 0 0
-13.1677685 61.952236 -55.217 255 0 0
-13.1677685 61.952236 -55.408 255 0 0
-13.1677685 61.952236 -55.599 255 0 0
-13.1677685 61.952236 -55.79 255 0 0
-13.1677685 61.952236 -55.981 255 0 0
-13.1677685 61.952236 -56.172 255 0 0
-13.1677685 61.952236 -56.363 255 0 0
-13.1677685 61.952236 -56.554 255 0 0
-13.1677685 61.952236 -56.746 255 0 0
-13.1677685 61.952236 -56.937 255 0 0
-13.1677685 61.952236 -57.128 255 0 0
-13.1677685 61.952236 -57.319 255 0 0
-13.1677685 61.952236 -57.51 255 0 0
-13.1677685 61.952236 -57.701 255 0 0
-13.1677685 61.952236 -57.892 255 0 0
-13.1677685 61.952236 -58.083 255 0 0
-13.1677685 61.952236 -58.274 255 0 0
-13.1677685 61.952236 -58.465 255 0 0
-13.1677685 61.952236 -58.656 255 0 0
-13.1677685 61.952236 -58.847 255 0 0
-13.1677685 61.952236 -59.038 255 0 0
-13.1677685 61.952236 -59.229 255 0 0
-13.1677685 61.952236 -59.42 255 0 0
-13.1677685 61.952236 -59.611 255 0 0
-13.1677685 61.952236 -59.803 255 0 0
-13.1677685 61.952236 -59.994 255 0 0
-13.1677685 61.952236 -60.185 255 0 0
-13.1677685 61.952236 -60.376 255 0 0
-13.1677685 61.952236 -60.567 255 0 0
-13.1677685 61.952236 -60.758 255 0 0
-13.1677685 61.952236 -60.949 255 0 0
-13.231239 62.250584 -61.111 255 0 0
-13.231239 62.250584 -61.302 255 0 0
-13.231239 62.250584 -61.493 255 0 0
-13.1677685 61.952236 -61.713 255 0 0
-13.1677685 61.952236 -61.904 255 0 0
-13.1677685 61.952236 -62.095 255 0 0
-13.1677685 61.952236 -62.286 255 0 0
-13.1677685 61.952236 -62.477 255 0 0
-13.1677685 61.952236 -62.668 255 0 0
-13.1677685 61.952236 -62.86 255 0 0
-13.1677685 61.952236 -63.051 255 0 0
-13.1677685 61.952236 -63.242 255 0 0
-13.1677685 61.952236 -63.433 255 0 0
-13.1677685 61.952236 -63.624 255 0 0
-13.231239 62.250584 -63.785 255 0 0
-13.231239 62.250584 -63.976 255 0 0
-13.231239 62.250584 -64.167 255 0 0
-13.231239 62.250584 -64.357 255 0 0
-13.231239 62.250584 -64.548 255 0 0
-13.231239 62.250584 -64.739 255 0 0
-13.231239 62.250584 -64.93 255 0 0
-13.231239 62.250584 -65.121 255 0 0
-13.295063 62.54785 -65.281 255 0 0
-13.295063 62.54785 -65.472 255 0 0
-13.295063 62.54785 -65.663 255 0 0
-13.358534 62.846203 -65.823 255 0 0
-13.421274 63.143116 -65.982 255 0 0
-13.421274 63.143116 -66.173 255 0 0
-13.485098 63.440384 -66.332 255 0 0
-13.485098 63.440384 -66.523 255 0 0
-13.547838 63.737297 -66.682 255 0 0
-13.610579 64.03421 -66.841 255 0 0
-13.673671 64.33005 -67.0 255 0 0
-13.673671 64.33005 -67.19 255 0 0
-13.799855 64.92171 -67.317 255 0 0
-13.799855 64.92171 -67.507 255 0 0
-15.657774 73.66445 -67.876 255 0 0
-15.77987 74.23923 -68.0 255 0 0
-15.841094 74.52607 -68.155 255 0 0
-15.841094 74.52607 -68.343 255 0 0
-15.841094 74.52607 -68.53 255 0 0
-15.901235 74.81257 -68.685 255 0 0
-15.901235 74.81257 -68.872 255 0 0
-14.74304 60.023415 -38.686 255 0 0
-14.816627 60.321033 -38.859 255 0 0
-14.816627 60.321033 -39.051 255 0 0
-14.816627 60.321033 -39.242 255 0 0
-14.889121 60.618336 -39.415 255 0 0
-14.889121 60.618336 -39.606 255 0 0
-14.816627 60.321033 -39.817 255 0 0
-14.816627 60.321033 -40.008 255 0 0
-14.889121 60.618336 -40.18 255 0 0
-14.889121 60.618336 -40.372 255 0 0
-14.889121 60.618336 -40.563 255 0 0
-14.816627 60.321033 -40.774 255 0 0
-14.889121 60.618336 -40.946 255 0 0
-14.889121 60.618336 -41.137 255 0 0
-15.034426 61.211845 -41.289 255 0 0
-15.034426 61.211845 -41.48 255 0 0
-15.034426 61.211845 -41.671 255 0 0
-14.889121 60.618336 -41.902 255 0 0
-14.889121 60.618336 -42.094 255 0 0
-14.889121 60.618336 -42.285 255 0 0
-14.889121 60.618336 -42.476 255 0 0
-14.816627 60.321033 -42.688 255 0 0
-14.889121 60.618336 -42.859 255 0 0
-14.816627 60.321033 -43.071 255 0 0
-14.816627 60.321033 -43.262 255 0 0
-14.816627 60.321033 -43.454 255 0 0
-14.816627 60.321033 -43.645 255 0 0
-14.74304 60.023415 -43.857 255 0 0
-14.74304 60.023415 -44.049 255 0 0
-14.74304 60.023415 -44.24 255 0 0
-14.816627 60.321033 -44.411 255 0 0
-14.74304 60.023415 -44.623 255 0 0
-14.816627 60.321033 -44.794 255 0 0
-14.816627 60.321033 -44.985 255 0 0
-14.816627 60.321033 -45.177 255 0 0
-14.816627 60.321033 -45.368 255 0 0
-14.816627 60.321033 -45.559 255 0 0
-14.816627 60.321033 -45.751 255 0 0
-14.816627 60.321033 -45.942 255 0 0
-14.816627 60.321033 -46.134 255 0 0
-14.816627 60.321033 -46.325 255 0 0
-14.816627 60.321033 -46.517 255 0 0
-14.816627 60.321033 -46.708 255 0 0
-14.816627 60.321033 -46.899 255 0 0
-14.816627 60.321033 -47.091 255 0 0
-14.816627 60.321033 -47.282 255 0 0
-14.816627 60.321033 -47.474 255 0 0
-14.816627 60.321033 -47.665 255 0 0
-14.669453 59.725796 -47.902 255 0 0
-14.816627 60.321033 -48.048 255 0 0
-14.816627 60.321033 -48.239 255 0 0
-14.816627 60.321033 -48.431 255 0 0
-14.816627 60.321033 -48.622 255 0 0
-14.816627 60.321033 -48.814 255 0 0
-14.816627 60.321033 -49.005 255 0 0
-14.816627 60.321033 -49.196 255 0 0
-14.816627 60.321033 -49.388 255 0 0
-14.816627 60.321033 -49.579 255 0 0
-14.816627 60.321033 -49.771 255 0 0
-14.816627 60.321033 -49.962 255 0 0
-14.816627 60.321033 -50.154 255 0 0
-14.816627 60.321033 -50.345 255 0 0
-14.74304 60.023415 -50.56 255 0 0
-14.74304 60.023415 -50.752 255 0 0
-14.816627 60.321033 -50.919 255 0 0
-14.816627 60.321033 -51.111 255 0 0
-14.816627 60.321033 -51.302 255 0 0
-14.74304 60.023415 -51.518 255 0 0
-14.669453 59.725796 -51.734 255 0 0
-14.669453 59.725796 -51.926 255 0 0
-14.669453 59.725796 -52.117 255 0 0
-14.669453 59.725796 -52.309 255 0 0
-14.669453 59.725796 -52.501 255 0 0
-14.74304 60.023415 -52.667 255 0 0
-14.74304 60.023415 -52.859 255 0 0
-14.816627 60.321033 -53.025 255 0 0
-14.816627 60.321033 -53.216 255 0 0
-14.669453 59.725796 -53.459 255 0 0
-14.816627 60.321033 -53.599 255 0 0
-14.816627 60.321033 -53.791 255 0 0
-14.74304 60.023415 -54.008 255 0 0
-14.74304 60.023415 -54.199 255 0 0
-14.74304 60.023415 -54.391 255 0 0
-14.816627 60.321033 -54.556 255 0 0
-14.816627 60.321033 -54.748 255 0 0
-14.816627 60.321033 -54.939 255 0 0
-14.74304 60.023415 -55.157 255 0 0
-14.74304 60.023415 -55.348 255 0 0
-14.74304 60.023415 -55.54 255 0 0
-14.816627 60.321033 -55.705 255 0 0
-14.816627 60.321033 -55.896 255 0 0
-14.816627 60.321033 -56.088 255 0 0
-14.816627 60.321033 -56.279 255 0 0
-14.816627 60.321033 -56.471 255 0 0
-14.816627 60.321033 -56.662 255 0 0
-14.816627 60.321033 -56.854 255 0 0
-14.74304 60.023415 -57.072 255 0 0
-14.74304 60.023415 -57.264 255 0 0
-14.74304 60.023415 -57.455 255 0 0
-14.74304 60.023415 -57.647 255 0 0
-14.74304 60.023415 -57.838 255 0 0
-14.74304 60.023415 -58.03 255 0 0
-14.74304 60.023415 -58.221 255 0 0
-14.74304 60.023415 -58.413 255 0 0
-14.74304 60.023415 -58.604 255 0 0
-14.74304 60.023415 -58.796 255 0 0
-14.74304 60.023415 -58.987 255 0 0
-14.74304 60.023415 -59.179 255 0 0
-14.74304 60.023415 -59.37 255 0 0
-14.74304 60.023415 -59.562 255 0 0
-14.74304 60.023415 -59.753 255 0 0
-14.816627 60.321033 -59.916 255 0 0
-14.816627 60.321033 -60.108 255 0 0
-14.816627 60.321033 -60.299 255 0 0
-14.816627 60.321033 -60.491 255 0 0
-14.816627 60.321033 -60.682 255 0 0
-14.816627 60.321033 -60.873 255 0 0
-14.816627 60.321033 -61.065 255 0 0
-14.816627 60.321033 -61.256 255 0 0
-14.816627 60.321033 -61.448 255 0 0
-14.74304 60.023415 -61.668 255 0 0
-14.74304 60.023415 -61.86 255 0 0
-14.74304 60.023415 -62.052 255 0 0
-14.74304 60.023415 -62.243 255 0 0
-14.74304 60.023415 -62.435 255 0 0
-14.74304 60.023415 -62.626 255 0 0
-14.74304 60.023415 -62.818 255 0 0
-14.74304 60.023415 -63.009 255 0 0
-14.74304 60.023415 -63.201 255 0 0
-14.74304 60.023415 -63.392 255 0 0
-14.74304 60.023415 -63.584 255 0 0
-14.816627 60.321033 -63.745 255 0 0
-14.816627 60.321033 -63.936 255 0 0
-14.816627 60.321033 -64.128 255 0 0
-14.816627 60.321033 -64.319 255 0 0
-14.74304 60.023415 -64.541 255 0 0
-14.961932 60.914543 -64.64 255 0 0
-14.961932 60.914543 -64.832 255 0 0
-14.816627 60.321033 -65.085 255 0 0
-14.889121 60.618336 -65.245 255 0 0
-14.961932 60.914543 -65.405 255 0 0
-14.961932 60.914543 -65.597 255 0 0
-15.034426 61.211845 -65.757 255 0 0
-15.107237 61.508057 -65.917 255 0 0
-15.180049 61.804264 -66.076 255 0 0
-15.180049 61.804264 -66.267 255 0 0
-15.32599 62.395588 -66.395 255 0 0
-15.54319 63.2803 -66.491 255 0 0
-15.471154 62.9855 -66.713 255 0 0
-15.54319 63.2803 -66.872 255 0 0
-15.54319 63.2803 -67.063 255 0 0
-15.615226 63.575096 -67.222 255 0 0
-15.687579 63.8688 -67.38 255 0 0
-17.68295 71.99356 -67.815 255 0 0
-17.823814 72.56563 -67.939 255 0 0
-17.893702 72.8515 -68.095 255 0 0
-17.823814 72.56563 -68.314 255 0 0
-17.893702 72.8515 -68.47 255 0 0
-17.823814 72.56563 -68.69 255 0 0
-17.893702 72.8515 -68.845 255 0 0
-16.207783 58.050488 -38.587 255 0 0
-16.291218 58.348137 -38.76 255 0 0
-16.042833 57.456856 -39.008 255 0 0
-16.042833 57.456856 -39.2 255 0 0
-16.042833 57.456856 -39.392 255 0 0
-16.042833 57.456856 -39.584 255 0 0
-16.042833 57.456856 -39.777 255 0 0
-16.291218 58.348137 -39.912 255 0 0
-16.291218 58.348137 -40.103 255 0 0
-16.291218 58.348137 -40.295 255 0 0
-16.291218 58.348137 -40.487 255 0 0
-16.291218 58.348137 -40.679 255 0 0
-16.291218 58.348137 -40.871 255 0 0
-16.042833 57.456856 -41.122 255 0 0
-16.042833 57.456856 -41.314 255 0 0
-16.291218 58.348137 -41.447 255 0 0
-16.291218 58.348137 -41.638 255 0 0
-15.959114 57.16031 -41.91 255 0 0
-15.959114 57.16031 -42.103 255 0 0
-15.959114 57.16031 -42.295 255 0 0
-15.959114 57.16031 -42.487 255 0 0
-15.959114 57.16031 -42.679 255 0 0
-16.042833 57.456856 -42.851 255 0 0
-16.042833 57.456856 -43.043 255 0 0
-16.042833 57.456856 -43.235 255 0 0
-16.042833 57.456856 -43.428 255 0 0
-15.959114 57.16031 -43.641 255 0 0
-16.042833 57.456856 -43.812 255 0 0
-16.042833 57.456856 -44.004 255 0 0
-15.959114 57.16031 -44.217 255 0 0
-16.042833 57.456856 -44.388 255 0 0
-16.042833 57.456856 -44.58 255 0 0
-16.042833 57.456856 -44.773 255 0 0
-16.207783 58.050488 -44.922 255 0 0
-16.291218 58.348137 -45.092 255 0 0
-16.207783 58.050488 -45.306 255 0 0
-16.207783 58.050488 -45.498 255 0 0
-16.207783 58.050488 -45.69 255 0 0
-16.291218 58.348137 -45.86 255 0 0
-15.959114 57.16031 -46.14 255 0 0
-16.042833 57.456856 -46.31 255 0 0
-15.959114 57.16031 -46.524 255 0 0
-15.959114 57.16031 -46.716 255 0 0
-16.042833 57.456856 -46.886 255 0 0
-15.959114 57.16031 -47.101 255 0 0
-15.959114 57.16031 -47.293 255 0 0
-15.959114 57.16031 -47.485 255 0 0
-15.959114 57.16031 -47.678 255 0 0
-15.959114 57.16031 -47.87 255 0 0
-15.959114 57.16031 -48.062 255 0 0
-16.042833 57.456856 -48.231 255 0 0
-16.291218 58.348137 -48.354 255 0 0
-16.291218 58.348137 -48.546 255 0 0
-16.291218 58.348137 -48.738 255 0 0
-16.207783 58.050488 -48.953 255 0 0
-16.207783 58.050488 -49.145 255 0 0
-16.207783 58.050488 -49.337 255 0 0
-16.207783 58.050488 -49.529 255 0 0
-16.042833 57.456856 -49.769 255 0 0
-16.042833 57.456856 -49.961 255 0 0
-16.042833 57.456856 -50.153 255 0 0
-16.042833 57.456856 -50.345 255 0 0
-16.042833 57.456856 -50.537 255 0 0
-16.042833 57.456856 -50.729 255 0 0
-16.042833 57.456856 -50.922 255 0 0
-15.959114 57.16031 -51.138 255 0 0
-15.959114 57.16031 -51.33 255 0 0
-15.959114 57.16031 -51.523 255 0 0
-15.959114 57.16031 -51.715 255 0 0
-15.959114 57.16031 -51.907 255 0 0
-16.207783 58.050488 -52.025 255 0 0
-16.125166 57.754223 -52.242 255 0 0
-16.125166 57.754223 -52.434 255 0 0
-16.207783 58.050488 -52.601 255 0 0
-16.042833 57.456856 -52.843 255 0 0
-16.042833 57.456856 -53.035 255 0 0
-15.959114 57.16031 -53.253 255 0 0
-15.959114 57.16031 -53.445 255 0 0
-16.042833 57.456856 -53.612 255 0 0
-16.207783 58.050488 -53.753 255 0 0
-16.207783 58.050488 -53.945 255 0 0
-15.959114 57.16031 -54.214 255 0 0
-16.207783 58.050488 -54.329 255 0 0
-16.207783 58.050488 -54.521 255 0 0
-16.291218 58.348137 -54.686 255 0 0
-16.291218 58.348137 -54.878 255 0 0
-16.291218 58.348137 -55.07 255 0 0
-16.291218 58.348137 -55.262 255 0 0
-16.291218 58.348137 -55.454 255 0 0
-16.291218 58.348137 -55.646 255 0 0
-16.207783 58.050488 -55.864 255 0 0
-16.207783 58.050488 -56.056 255 0 0
-16.207783 58.050488 -56.248 255 0 0
-16.207783 58.050488 -56.44 255 0 0
-16.291218 58.348137 -56.605 255 0 0
-16.291218 58.348137 -56.797 255 0 0
-16.291218 58.348137 -56.989 255 0 0
-16.291218 58.348137 -57.181 255 0 0
-16.374117 58.6433 -57.345 255 0 0
-16.374117 58.6433 -57.537 255 0 0
-16.291218 58.348137 -57.757 255 0 0
-16.291218 58.348137 -57.948 255 0 0
-16.291218 58.348137 -58.14 255 0 0
-16.207783 58.050488 -58.36 255 0 0
-16.291218 58.348137 -58.524 255 0 0
-16.207783 58.050488 -58.744 255 0 0
-16.291218 58.348137 -58.908 255 0 0
-16.291218 58.348137 -59.1 255 0 0
-16.207783 58.050488 -59.32 255 0 0
-16.042833 57.456856 -59.569 255 0 0
-16.042833 57.456856 -59.761 255 0 0
-16.042833 57.456856 -59.953 255 0 0
-16.042833 57.456856 -60.145 255 0 0
-16.207783 58.050488 -60.28 255 0 0
-16.042833 57.456856 -60.53 255 0 0
-16.207783 58.050488 -60.664 255 0 0
-16.207783 58.050488 -60.856 255 0 0
-16.207783 58.050488 -61.048 255 0 0
-16.207783 58.050488 -61.24 255 0 0
-15.875678 56.86266 -61.549 255 0 0
-15.875678 56.86266 -61.741 255 0 0
-15.875678 56.86266 -61.934 255 0 0
-15.959114 57.16031 -62.096 255 0 0
-15.959114 57.16031 -62.289 255 0 0
-16.207783 58.050488 -62.391 255 0 0
-16.207783 58.050488 -62.583 255 0 0
-16.207783 58.050488 -62.775 255 0 0
-16.042833 57.456856 -63.028 255 0 0
-16.125166 57.754223 -63.19 255 0 0
-16.042833 57.456856 -63.412 255 0 0
-16.207783 58.050488 -63.543 255 0 0
-16.207783 58.050488 -63.735 255 0 0
-16.291218 58.348137 -63.897 255 0 0
-16.291218 58.348137 -64.089 255 0 0
-16.291218 58.348137 -64.281 255 0 0
-16.291218 58.348137 -64.472 255 0 0
-16.374117 58.6433 -64.634 255 0 0
-16.374117 58.6433 -64.825 255 0 0
-16.291218 58.348137 -65.048 255 0 0
-16.374117 58.6433 -65.209 255 0 0
-16.456734 58.939564 -65.37 255 0 0
-16.456734 58.939564 -65.561 255 0 0
-16.621145 59.530704 -65.69 255 0 0
-16.621145 59.530704 -65.882 255 0 0
-16.704044 59.825867 -66.042 255 0 0
-17.031797 61.003174 -66.108 255 0 0
-16.867922 60.41452 -66.362 255 0 0
-17.031797 61.003174 -66.49 255 0 0
-17.031797 61.003174 -66.681 255 0 0
-17.113876 61.29695 -66.84 255 0 0
-17.19624 61.589622 -66.999 255 0 0
-17.19624 61.589622 -67.19 255 0 0
-19.697464 70.54922 -67.722 255 0 0
-19.777115 70.83414 -67.878 255 0 0
-19.935596 71.4026 -68.002 255 0 0
-19.777115 70.83414 -68.254 255 0 0
-19.777115 70.83414 -68.442 255 0 0
-19.857048 71.11796 -68.598 255 0 0
-20.173193 72.253494 -68.658 255 0 0
-20.173193 72.253494 -68.845 255 0 0
-17.56256 56.040188 -38.487 255 0 0
-17.56256 56.040188 -38.679 255 0 0
-17.469816 55.745304 -38.89 255 0 0
-17.37732 55.449314 -39.101 255 0 0
-17.37732 55.449314 -39.294 255 0 0
-17.37732 55.449314 -39.486 255 0 0
-17.37732 55.449314 -39.679 255 0 0
-17.37732 55.449314 -39.872 255 0 0
-17.37732 55.449314 -40.064 255 0 0
-17.37732 55.449314 -40.257 255 0 0
-17.37732 55.449314 -40.45 255 0 0
-17.37732 55.449314 -40.642 255 0 0
-17.37732 55.449314 -40.835 255 0 0
-17.37732 55.449314 -41.027 255 0 0
-17.37732 55.449314 -41.22 255 0 0
-17.37732 55.449314 -41.413 255 0 0
-17.37732 55.449314 -41.605 255 0 0
-17.37732 55.449314 -41.798 255 0 0
-17.37732 55.449314 -41.991 255 0 0
-17.37732 55.449314 -42.183 255 0 0
-17.37732 55.449314 -42.376 255 0 0
-17.283712 55.15307 -42.589 255 0 0
-17.283712 55.15307 -42.781 255 0 0
-17.283712 55.15307 -42.974 255 0 0
