ply
format ascii 1.0
element vertex 1200
property float x
property float y
property float z
property uchar red
property uchar green
property uchar blue
end_header
7.52784 -50.97827 -37.553 211 211 211
7.52784 -50.97827 -37.747 211 211 211
7.52784 -50.97827 -37.942 209 209 213
7.52784 -50.97827 -38.136 210 210 212
7.52784 -50.97827 -38.331 212 213 215
7.52784 -50.97827 -38.525 216 216 216
7.481288 -50.665962 -38.739 219 219 219
7.481288 -50.665962 -38.933 221 222 222
7.481288 -50.665962 -39.128 222 223 225
7.481288 -50.665962 -39.323 222 222 224
7.481288 -50.665962 -39.517 220 221 223
7.481288 -50.665962 -39.712 219 218 218
7.52784 -50.97827 -39.887 218 217 217
7.52784 -50.97827 -40.082 217 216 216
7.52784 -50.97827 -40.277 215 214 214
7.52784 -50.97827 -40.471 212 211 211
7.52784 -50.97827 -40.666 211 210 210
7.52784 -50.97827 -40.86 210 210 210
7.52784 -50.97827 -41.055 212 211 211
7.52784 -50.97827 -41.249 213 213 215
7.52784 -50.97827 -41.444 214 214 216
7.52784 -50.97827 -41.639 211 210 210
7.52784 -50.97827 -41.833 208 207 207
7.52784 -50.97827 -42.028 208 207 207
7.52784 -50.97827 -42.222 209 205 206
7.52784 -50.97827 -42.417 209 205 208
7.52784 -50.97827 -42.611 207 206 208
7.52784 -50.97827 -42.806 207 206 208
7.52784 -50.97827 -43.001 204 204 204
7.481288 -50.665962 -43.216 210 209 211
7.481288 -50.665962 -43.411 210 209 211
7.481288 -50.665962 -43.605 210 209 211
7.481288 -50.665962 -43.8 210 209 211
7.4351544 -50.352592 -44.016 211 210 212
7.4351544 -50.352592 -44.211 210 209 211
7.4351544 -50.352592 -44.405 210 209 211
7.4351544 -50.352592 -44.6 210 209 211
7.481288 -50.665962 -44.773 210 206 207
7.4351544 -50.352592 -44.99 210 206 211
7.481288 -50.665962 -45.163 210 204 206
7.4351544 -50.352592 -45.379 212 206 208
7.4351544 -50.352592 -45.574 210 206 207
7.4351544 -50.352592 -45.769 207 203 204
7.4351544 -50.352592 -45.964 203 202 202
7.4351544 -50.352592 -46.158 203 202 202
7.4351544 -50.352592 -46.353 203 202 202
7.4351544 -50.352592 -46.548 203 202 202
7.4351544 -50.352592 -46.743 200 200 200
7.4351544 -50.352592 -46.937 205 201 202
7.66602 -51.915844 -47.018 209 205 206
7.66602 -51.915844 -47.213 205 204 204
7.38944 -50.038166 -47.545 207 203 204
7.38944 -50.038166 -47.74 207 203 204
7.38944 -50.038166 -47.934 207 203 204
7.38944 -50.038166 -48.129 208 207 209
7.6205263 -51.60395 -48.207 203 199 200
7.3422484 -49.724377 -48.542 214 213 215
7.3422484 -49.724377 -48.737 216 215 217
7.3422484 -49.724377 -48.932 217 216 218
7.3422484 -49.724377 -49.127 217 216 218
7.3422484 -49.724377 -49.322 216 215 217
7.3422484 -49.724377 -49.517 215 214 216
7.296534 -49.40995 -49.736 212 213 217
7.296534 -49.40995 -49.931 209 209 213
7.296534 -49.40995 -50.126 205 206 210
7.296534 -49.40995 -50.321 201 200 204
7.296534 -49.40995 -50.516 203 202 206
7.249761 -49.095104 -50.736 203 201 208
7.249761 -49.095104 -50.931 203 202 206
7.249761 -49.095104 -51.126 202 201 205
7.2029886 -48.780254 -51.346 202 201 205
7.2029886 -48.780254 -51.542 201 200 202
7.2029886 -48.780254 -51.737 201 200 202
7.2029886 -48.780254 -51.932 200 199 201
7.2029886 -48.780254 -52.127 197 196 196
7.2029886 -48.780254 -52.323 197 193 194
7.2029886 -48.780254 -52.518 196 190 192
7.1562157 -48.46541 -52.739 191 187 186
7.1562157 -48.46541 -52.934 193 187 185
7.109862 -48.149506 -53.155 197 191 189
7.109862 -48.149506 -53.35 197 191 191
7.109862 -48.149506 -53.546 197 191 191
7.109862 -48.149506 -53.741 196 192 191
7.109862 -48.149506 -53.937 198 192 192
7.063508 -47.8336 -54.158 194 188 186
7.063508 -47.8336 -54.354 192 186 186
7.063508 -47.8336 -54.549 192 186 186
7.063508 -47.8336 -54.745 192 186 186
7.063508 -47.8336 -54.941 192 186 188
7.0171547 -47.517693 -55.163 195 191 192
7.0171547 -47.517693 -55.358 195 191 192
7.0171547 -47.517693 -55.554 193 192 192
7.0171547 -47.517693 -55.75 191 190 190
7.249761 -49.095104 -55.81 189 185 184
6.9697423 -47.20137 -56.168 191 190 190
6.9697423 -47.20137 -56.364 190 189 189
6.9238076 -46.884407 -56.587 193 189 190
6.9238076 -46.884407 -56.783 195 191 192
6.9238076 -46.884407 -56.979 193 189 190
6.876395 -46.56808 -57.202 192 188 189
6.876395 -46.56808 -57.398 191 187 188
6.8298216 -46.24964 -57.622 188 187 187
6.8298216 -46.24964 -57.818 188 187 187
6.8298216 -46.24964 -58.014 188 187 187
6.8298216 -46.24964 -58.21 188 187 187
6.735835 -45.614872 -58.463 186 185 185
6.735835 -45.614872 -58.659 184 183 181
6.735835 -45.614872 -58.856 182 181 181
6.6882024 -45.296013 -59.08 181 181 179
6.6416287 -44.977573 -59.306 181 180 178
6.6416287 -44.977573 -59.502 179 179 177
6.6416287 -44.977573 -59.698 179 179 177
6.593996 -44.65871 -59.924 180 180 178
6.593996 -44.65871 -60.121 180 179 179
6.547841 -44.33921 -60.346 179 178 178
6.547841 -44.33921 -60.543 176 175 175
6.5006275 -44.01929 -60.769 176 175 175
6.453414 -43.69937 -60.996 176 175 175
6.4062004 -43.379456 -61.222 175 174 174
6.4062004 -43.379456 -61.419 173 172 174
6.3111343 -42.738136 -61.677 173 172 174
6.3111343 -42.738136 -61.874 170 169 169
6.3111343 -42.738136 -62.071 170 166 167
6.216487 -42.095764 -62.329 170 166 167
6.216487 -42.095764 -62.526 169 165 166
6.216487 -42.095764 -62.723 167 166 166
6.1212 -41.451912 -62.982 169 169 171
6.1212 -41.451912 -63.18 168 168 170
6.073766 -41.129456 -63.408 168 168 170
6.073766 -41.129456 -63.606 168 168 168
5.9778404 -40.484127 -63.866 169 168 168
5.9308257 -40.160614 -64.095 168 168 168
5.8827524 -39.836678 -64.325 169 168 168
5.834679 -39.512745 -64.554 167 167 167
5.786606 -39.188812 -64.784 166 165 163
5.9308257 -40.160614 -64.886 149 148 148
5.786606 -39.188812 -65.18 152 151 151
5.7389517 -38.863823 -65.411 149 145 146
5.6912975 -38.53883 -65.641 140 136 139
4.946382 -27.49062 -1.814 97 98 102
4.946382 -27.49062 -2.016 82 87 96
4.946382 -27.49062 -2.217 107 107 118
4.946382 -27.49062 -2.419 138 138 145
5.0662155 -28.159355 -2.618 94 104 111
5.126711 -28.492117 -2.818 98 98 100
5.0662155 -28.159355 -3.021 158 157 161
5.1868205 -28.825949 -3.219 132 132 134
5.2462444 -29.158323 -3.418 138 134 133
5.305669 -29.4907 -3.618 133 133 137
5.2462444 -29.158323 -3.821 174 173 173
5.305669 -29.4907 -4.02 180 179 179
5.3665495 -29.82239 -4.219 186 186 186
5.4259734 -30.154764 -4.417 192 192 192
5.4259734 -30.154764 -4.618 204 203 203
5.544522 -30.816988 -4.814 195 196 196
5.544522 -30.816988 -5.015 196 196 196
5.663456 -31.478138 -5.21 186 186 190
5.663456 -31.478138 -5.41 183 182 182
5.7827754 -32.138218 -5.605 176 175 175
5.7827754 -32.138218 -5.805 174 174 176
5.900338 -32.796455 -6.0 178 172 174
5.959848 -33.125233 -6.197 175 174 176
6.078182 -33.78133 -6.39 173 173 175
6.1370063 -34.108646 -6.586 172 172 174
6.254655 -34.763287 -6.779 173 173 177
6.254655 -34.763287 -6.979 175 174 174
6.3726892 -35.416855 -7.171 172 172 174
6.3726892 -35.416855 -7.37 174 174 176
6.430828 -35.742714 -7.566 176 176 178
6.490038 -36.068962 -7.761 180 180 182
6.548177 -36.394825 -7.956 181 181 183
6.606701 -36.719616 -8.151 181 181 183
6.606701 -36.719616 -8.35 183 183 183
6.6652255 -37.044407 -8.544 187 186 186
6.6652255 -37.044407 -8.743 189 189 191
6.7237496 -37.3692 -8.937 188 187 187
6.899023 -38.341045 -9.122 181 180 180
6.956862 -38.66438 -9.316 180 179 181
6.956862 -38.66438 -9.514 178 174 175
7.014701 -38.987713 -9.708 179 178 180
7.072925 -39.30998 -9.901 183 177 179
7.13115 -39.63224 -10.094 177 176 176
7.1893744 -39.954502 -10.287 174 174 178
7.1893744 -39.954502 -10.485 175 175 177
7.3040667 -40.597187 -10.672 175 174 174
7.3040667 -40.597187 -10.87 175 175 175
7.3626766 -40.91838 -11.062 170 171 171
7.3626766 -40.91838 -11.259 164 165 165
7.4202156 -41.239185 -11.451 165 166 170
7.4202156 -41.239185 -11.649 176 176 176
7.4777546 -41.559994 -11.84 179 179 181
7.4777546 -41.559994 -12.038 187 187 189
7.5356793 -41.879726 -12.229 189 189 189
7.5356793 -41.879726 -12.426 195 195 195
7.5356793 -41.879726 -12.624 194 195 197
7.5925326 -42.199078 -12.814 195 196 198
7.5925326 -42.199078 -13.012 196 197 199
7.6504574 -42.51881 -13.202 198 199 201
7.7073107 -42.83816 -13.393 196 196 198
7.7073107 -42.83816 -13.59 197 197 199
7.765621 -43.156826 -13.78 195 194 194
7.765621 -43.156826 -13.977 197 193 192
7.765621 -43.156826 -14.174 199 195 196
7.765621 -43.156826 -14.371 203 199 200
7.8800993 -43.79338 -14.553 197 193 194
7.8800993 -43.79338 -14.75 199 193 195
7.8228602 -43.4751 -14.954 198 197 197
7.8228602 -43.4751 -15.151 201 200 200
7.8800993 -43.79338 -15.34 199 195 196
7.9373384 -44.11166 -15.529 195 194 194
7.9373384 -44.11166 -15.725 196 195 195
7.9373384 -44.11166 -15.922 196 195 195
7.9935064 -44.429554 -16.111 194 193 193
7.9935064 -44.429554 -16.307 195 194 194
8.051131 -44.74676 -16.496 193 192 192
8.165309 -45.380787 -16.676 193 189 188
8.051131 -44.74676 -16.888 193 192 192
8.051131 -44.74676 -17.085 193 192 192
8.107684 -45.06358 -17.273 193 192 194
8.107684 -45.06358 -17.469 195 194 194
8.051131 -44.74676 -17.674 196 196 196
8.051131 -44.74676 -17.87 198 197 197
8.165309 -45.380787 -18.049 201 200 200
8.165309 -45.380787 -18.245 202 201 201
8.222248 -45.696537 -18.432 203 202 202
8.222248 -45.696537 -18.628 203 202 202
8.222248 -45.696537 -18.825 203 202 202
8.279187 -46.012287 -19.011 202 201 201
8.279187 -46.012287 -19.207 203 199 200
8.279187 -46.012287 -19.403 203 199 200
8.279187 -46.012287 -19.599 201 200 200
8.279187 -46.012287 -19.795 201 200 200
8.335741 -46.32911 -19.982 198 197 197
8.393066 -46.643787 -20.168 200 199 199
8.393066 -46.643787 -20.364 200 199 199
8.393066 -46.643787 -20.559 201 200 200
8.448934 -46.959152 -20.745 200 199 199
8.448934 -46.959152 -20.941 200 199 199
8.506259 -47.27383 -21.126 198 197 197
8.506259 -47.27383 -21.322 198 197 197
8.506259 -47.27383 -21.517 200 200 200
8.506259 -47.27383 -21.713 195 194 194
8.506259 -47.27383 -21.909 195 194 194
8.562512 -47.588127 -22.094 196 195 195
8.788299 -48.843155 -22.246 194 193 193
8.788299 -48.843155 -22.441 199 199 199
8.618766 -47.90242 -22.669 197 193 194
8.618766 -47.90242 -22.864 198 197 197
8.618766 -47.90242 -23.06 205 201 202
8.618766 -47.90242 -23.255 207 201 203
8.844937 -49.15638 -23.405 207 203 206
8.900506 -49.469215 -23.589 203 202 204
8.900506 -49.469215 -23.784 205 201 204
8.731659 -48.529934 -24.014 202 201 201
8.731659 -48.529934 -24.209 201 201 201
8.731659 -48.529934 -24.404 202 201 201
8.788299 -48.843155 -24.587 203 202 200
8.788299 -48.843155 -24.783 203 203 201
9.013099 -50.094204 -24.929 203 203 203
9.013099 -50.094204 -25.124 204 203 203
8.788299 -48.843155 -25.368 209 209 209
8.788299 -48.843155 -25.563 209 209 211
8.844937 -49.15638 -25.746 209 210 212
8.788299 -48.843155 -25.953 210 211 213
8.788299 -48.843155 -26.149 212 213 215
8.844937 -49.15638 -26.331 213 213 215
8.900506 -49.469215 -26.513 213 213 213
8.900506 -49.469215 -26.708 210 210 210
9.125392 -50.716663 -26.851 205 204 204
9.125392 -50.716663 -27.046 207 206 204
8.900506 -49.469215 -27.293 209 208 208
8.900506 -49.469215 -27.488 209 208 208
8.900506 -49.469215 -27.683 210 209 209
8.957531 -49.781364 -27.864 210 209 209
8.957531 -49.781364 -28.059 210 209 209
8.957531 -49.781364 -28.254 210 209 209
8.957531 -49.781364 -28.449 210 209 209
8.957531 -49.781364 -28.644 210 209 209
8.957531 -49.781364 -28.839 210 209 209
8.957531 -49.781364 -29.033 208 208 208
9.013099 -50.094204 -29.214 208 207 207
9.013099 -50.094204 -29.409 205 204 204
9.013099 -50.094204 -29.604 204 203 203
9.237685 -51.339123 -29.741 209 205 206
9.069053 -50.405968 -29.979 205 204 204
9.069053 -50.405968 -30.173 208 207 207
9.069053 -50.405968 -30.368 209 208 208
9.069053 -50.405968 -30.563 210 209 209
9.069053 -50.405968 -30.757 210 209 209
9.069053 -50.405968 -30.952 209 208 208
9.069053 -50.405968 -31.147 209 208 208
9.125392 -50.716663 -31.326 210 209 211
9.125392 -50.716663 -31.521 210 209 209
9.125392 -50.716663 -31.715 211 211 213
9.125392 -50.716663 -31.91 213 213 215
9.125392 -50.716663 -32.104 212 211 213
9.125392 -50.716663 -32.299 209 209 209
9.181346 -51.028427 -32.478 211 210 210
9.181346 -51.028427 -32.672 210 209 209
9.181346 -51.028427 -32.867 211 207 208
9.125392 -50.716663 -33.077 209 205 204
9.125392 -50.716663 -33.272 206 202 203
9.125392 -50.716663 -33.466 205 199 201
9.125392 -50.716663 -33.661 202 201 203
9.181346 -51.028427 -33.839 207 206 208
9.181346 -51.028427 -34.034 208 208 210
9.181346 -51.028427 -34.228 209 209 211
9.181346 -51.028427 -34.423 209 209 211
9.181346 -51.028427 -34.617 209 208 210
9.181346 -51.028427 -34.812 209 208 208
9.181346 -51.028427 -35.006 210 209 209
9.181346 -51.028427 -35.201 212 208 209
9.181346 -51.028427 -35.395 211 211 213
9.181346 -51.028427 -35.59 216 216 216
9.181346 -51.028427 -35.784 218 218 218
9.237685 -51.339123 -35.961 220 219 221
9.181346 -51.028427 -36.173 221 221 223
9.181346 -51.028427 -36.367 220 219 221
9.181346 -51.028427 -36.562 218 217 221
9.181346 -51.028427 -36.756 217 216 220
9.181346 -51.028427 -36.951 216 214 221
9.181346 -51.028427 -37.145 216 215 219
9.181346 -51.028427 -37.34 216 215 219
9.181346 -51.028427 -37.534 216 216 218
9.181346 -51.028427 -37.729 217 217 219
9.181346 -51.028427 -37.923 219 218 220
9.181346 -51.028427 -38.118 220 219 221
9.181346 -51.028427 -38.312 220 219 219
9.181346 -51.028427 -38.507 220 219 221
9.181346 -51.028427 -38.701 220 219 221
9.237685 -51.339123 -38.877 219 218 222
9.181346 -51.028427 -39.09 217 216 218
9.181346 -51.028427 -39.285 215 214 216
9.181346 -51.028427 -39.479 212 211 213
9.181346 -51.028427 -39.674 210 209 211
9.181346 -51.028427 -39.868 207 207 209
9.237685 -51.339123 -40.043 210 206 207
9.237685 -51.339123 -40.238 208 207 207
9.181346 -51.028427 -40.452 208 208 210
9.181346 -51.028427 -40.646 207 208 212
9.237685 -51.339123 -40.821 207 208 210
9.237685 -51.339123 -41.015 205 206 208
9.237685 -51.339123 -41.21 205 204 204
9.181346 -51.028427 -41.424 208 208 208
9.181346 -51.028427 -41.618 209 208 208
9.181346 -51.028427 -41.813 211 210 212
9.181346 -51.028427 -42.007 214 213 215
9.181346 -51.028427 -42.202 216 215 217
9.181346 -51.028427 -42.396 217 216 218
9.237685 -51.339123 -42.57 216 216 218
9.237685 -51.339123 -42.765 218 217 219
9.237685 -51.339123 -42.959 216 216 218
9.237685 -51.339123 -43.153 215 214 216
9.237685 -51.339123 -43.348 210 210 210
9.237685 -51.339123 -43.542 208 208 208
9.237685 -51.339123 -43.737 207 206 206
9.237685 -51.339123 -43.931 205 204 204
9.181346 -51.028427 -44.147 204 203 203
9.181346 -51.028427 -44.341 205 204 204
9.181346 -51.028427 -44.536 205 204 204
9.181346 -51.028427 -44.73 205 204 204
9.181346 -51.028427 -44.925 207 206 206
9.181346 -51.028427 -45.119 205 204 204
9.181346 -51.028427 -45.314 204 203 203
9.181346 -51.028427 -45.508 205 201 202
9.125392 -50.716663 -45.725 203 202 204
9.125392 -50.716663 -45.919 205 201 204
9.125392 -50.716663 -46.114 203 202 202
9.125392 -50.716663 -46.308 206 202 203
9.069053 -50.405968 -46.525 208 208 210
9.125392 -50.716663 -46.697 207 206 206
9.125392 -50.716663 -46.892 209 208 210
9.069053 -50.405968 -47.109 209 209 211
9.069053 -50.405968 -47.304 210 210 212
9.069053 -50.405968 -47.499 212 211 215
9.069053 -50.405968 -47.693 212 211 213
9.013099 -50.094204 -47.911 216 216 218
9.013099 -50.094204 -48.106 215 214 216
8.957531 -49.781364 -48.324 212 213 217
9.013099 -50.094204 -48.495 209 210 214
9.013099 -50.094204 -48.69 208 209 213
9.181346 -51.028427 -48.814 209 209 216
9.013099 -50.094204 -49.08 203 204 208
9.013099 -50.094204 -49.275 206 205 212
8.957531 -49.781364 -49.493 206 206 210
8.957531 -49.781364 -49.688 204 204 208
8.957531 -49.781364 -49.883 203 203 207
8.957531 -49.781364 -50.078 202 202 206
8.957531 -49.781364 -50.273 201 201 203
8.957531 -49.781364 -50.468 202 201 203
8.957531 -49.781364 -50.662 201 200 200
8.900506 -49.469215 -50.882 201 200 200
8.900506 -49.469215 -51.077 200 196 197
8.957531 -49.781364 -51.247 199 195 196
8.900506 -49.469215 -51.467 199 195 196
8.844937 -49.15638 -51.687 200 194 194
8.900506 -49.469215 -51.857 199 193 193
8.844937 -49.15638 -52.077 201 192 191
8.900506 -49.469215 -52.246 198 189 188
8.900506 -49.469215 -52.441 196 190 190
8.900506 -49.469215 -52.636 196 190 190
8.844937 -49.15638 -52.857 195 194 194
8.844937 -49.15638 -53.052 196 190 190
8.844937 -49.15638 -53.247 191 190 190
8.788299 -48.843155 -53.468 188 187 187
8.788299 -48.843155 -53.663 185 181 182
8.788299 -48.843155 -53.858 191 185 185
8.788299 -48.843155 -54.053 191 185 185
8.731659 -48.529934 -54.275 192 188 187
8.731659 -48.529934 -54.47 192 188 189
8.731659 -48.529934 -54.665 190 189 189
8.67502 -48.216713 -54.887 190 189 189
8.67502 -48.216713 -55.083 190 189 189
8.67502 -48.216713 -55.278 191 187 188
8.618766 -47.90242 -55.5 191 187 186
8.618766 -47.90242 -55.696 191 187 188
8.618766 -47.90242 -55.891 190 189 189
8.618766 -47.90242 -56.086 192 188 189
8.618766 -47.90242 -56.282 190 189 189
8.562512 -47.588127 -56.505 190 189 189
8.506259 -47.27383 -56.728 189 188 188
8.506259 -47.27383 -56.923 189 188 190
8.506259 -47.27383 -57.119 188 187 189
8.448934 -46.959152 -57.342 189 185 188
8.393066 -46.643787 -57.566 189 185 186
8.393066 -46.643787 -57.762 186 185 185
8.393066 -46.643787 -57.958 184 183 185
8.393066 -46.643787 -58.154 186 182 183
8.335741 -46.32911 -58.378 182 181 181
8.279187 -46.012287 -58.602 181 181 183
8.279187 -46.012287 -58.798 181 181 183
8.279187 -46.012287 -58.994 180 180 184
8.279187 -46.012287 -59.19 180 180 182
8.165309 -45.380787 -59.444 181 181 181
8.165309 -45.380787 -59.64 181 180 180
8.165309 -45.380787 -59.836 180 179 179
8.165309 -45.380787 -60.033 180 179 179
8.051131 -44.74676 -60.288 182 181 181
8.051131 -44.74676 -60.484 180 179 179
7.9935064 -44.429554 -60.71 181 180 180
7.9373384 -44.11166 -60.936 179 178 178
7.8800993 -43.79338 -61.163 176 175 175
7.8800993 -43.79338 -61.359 173 172 172
7.8800993 -43.79338 -61.556 169 168 168
7.8228602 -43.4751 -61.783 167 163 164
7.765621 -43.156826 -62.01 161 160 160
7.765621 -43.156826 -62.207 163 162 162
7.7073107 -42.83816 -62.434 166 166 168
7.6504574 -42.51881 -62.662 168 168 170
7.6504574 -42.51881 -62.859 168 168 170
7.5925326 -42.199078 -63.087 172 171 171
7.5356793 -41.879726 -63.315 174 173 175
7.4777546 -41.559994 -63.543 172 172 172
7.4202156 -41.239185 -63.772 171 171 171
7.4202156 -41.239185 -63.969 168 167 167
7.3040667 -40.597187 -64.23 166 166 166
7.2465277 -40.276382 -64.459 165 164 164
7.1893744 -39.954502 -64.689 165 164 164
7.13115 -39.63224 -64.918 159 158 160
7.072925 -39.30998 -65.148 153 152 154
7.014701 -38.987713 -65.378 146 145 147
6.956862 -38.66438 -65.609 139 138 138
5.7368765 -26.989906 -1.614 122 121 119
5.8074427 -27.321686 -1.814 143 122 127
5.8074427 -27.321686 -2.016 160 149 151
5.8776565 -27.654547 -2.216 158 154 153
5.8776565 -27.654547 -2.418 172 171 169
5.9482226 -27.986326 -2.618 173 172 170
5.9482226 -27.986326 -2.819 183 182 182
6.0191402 -28.317022 -3.019 184 183 183
6.0191402 -28.317022 -3.221 188 187 187
6.089706 -28.648802 -3.42 193 192 192
6.089706 -28.648802 -3.621 202 201 201
6.159541 -28.979147 -3.821 209 208 208
6.229376 -29.309492 -4.02 209 208 208
6.229376 -29.309492 -4.221 197 196 196
6.3006454 -29.639107 -4.419 193 192 192
6.37048 -29.96945 -4.618 188 189 193
6.37048 -29.96945 -4.819 187 188 192
6.509771 -30.627623 -5.015 182 183 187
6.509771 -30.627623 -5.215 180 180 187
6.6494136 -31.284712 -5.41 177 180 188
6.7894077 -31.94072 -5.605 178 178 182
6.7894077 -31.94072 -5.805 179 180 184
6.9275885 -32.59494 -6.0 177 178 182
7.0675554 -33.247345 -6.193 173 173 180
7.13628 -33.57374 -6.39 173 173 180
7.2053566 -33.899048 -6.586 173 174 178
7.619789 -35.84731 -6.766 175 174 174
7.3435097 -34.549667 -6.979 179 178 182
7.4820147 -35.199207 -7.171 177 176 180
7.4820147 -35.199207 -7.37 180 179 183
7.5503607 -35.523083 -7.566 180 179 183
7.619789 -35.84731 -7.761 182 181 185
7.6881347 -36.171185 -7.956 187 181 183
7.756832 -36.493977 -8.151 189 183 187
7.8255296 -36.81677 -8.346 189 183 185
7.894227 -37.13956 -8.54 182 181 185
7.9629245 -37.462357 -8.734 186 182 185
8.03089 -37.783714 -8.928 188 184 185
8.09994 -38.105423 -9.122 183 182 182
8.167907 -38.42678 -9.316 181 181 181
8.167907 -38.42678 -9.514 182 181 181
8.304192 -39.068413 -9.703 181 181 181
8.37251 -39.38869 -9.896 182 181 181
8.37251 -39.38869 -10.094 186 180 184
8.440828 -39.708965 -10.287 183 179 182
8.440828 -39.708965 -10.485 183 182 184
8.575651 -40.34773 -10.672 186 180 180
8.575651 -40.34773 -10.87 187 186 188
8.644321 -40.66692 -11.062 189 189 193
8.644321 -40.66692 -11.259 198 196 203
8.711908 -40.985764 -11.451 200 199 203
8.711908 -40.985764 -11.649 200 198 205
8.711908 -40.985764 -11.846 202 201 208
8.779496 -41.304604 -12.038 206 202 207
8.779496 -41.304604 -12.235 205 204 206
8.779496 -41.304604 -12.432 204 200 201
8.847435 -41.62236 -12.624 200 200 202
8.847435 -41.62236 -12.821 200 200 202
8.914291 -41.939766 -13.012 199 199 201
8.914291 -41.939766 -13.209 200 199 199
8.914291 -41.939766 -13.406 201 201 203
8.98223 -42.257526 -13.596 200 200 202
8.98223 -42.257526 -13.793 201 201 201
9.049087 -42.574932 -13.984 196 195 195
9.049087 -42.574932 -14.181 200 196 197
9.117378 -42.891605 -14.371 201 195 197
9.117378 -42.891605 -14.567 203 197 197
9.117378 -42.891605 -14.764 203 197 199
9.184587 -43.207928 -14.954 200 199 199
9.184587 -43.207928 -15.151 200 200 200
9.251794 -43.524254 -15.34 201 200 200
9.184587 -43.207928 -15.544 203 202 202
9.251794 -43.524254 -15.733 201 201 201
9.319002 -43.840576 -15.922 201 200 200
9.319002 -43.840576 -16.119 201 200 200
9.319002 -43.840576 -16.315 201 200 200
9.385128 -44.156548 -16.504 202 198 197
9.385128 -44.156548 -16.7 203 197 197
9.385128 -44.156548 -16.897 201 195 195
9.452688 -44.471786 -17.085 198 192 192
9.452688 -44.471786 -17.281 198 192 194
9.452688 -44.471786 -17.478 197 193 194
9.519165 -44.786674 -17.665 197 193 194
9.919787 -46.670593 -17.809 199 195 196
9.586725 -45.101917 -18.049 197 193 194
9.586725 -45.101917 -18.245 197 193 192
9.586725 -45.101917 -18.441 199 193 195
9.653554 -45.41572 -18.628 199 193 195
9.653554 -45.41572 -18.825 199 193 195
9.720384 -45.729527 -19.011 201 195 197
9.720384 -45.729527 -19.207 204 198 200
9.720384 -45.729527 -19.403 207 203 204
9.78686 -46.04442 -19.59 207 201 203
9.78686 -46.04442 -19.786 209 200 201
9.78686 -46.04442 -19.982 206 197 196
9.854041 -46.35714 -20.168 206 197 198
9.854041 -46.35714 -20.364 203 197 197
9.854041 -46.35714 -20.559 203 197 197
9.919787 -46.670593 -20.745 200 194 196
9.919787 -46.670593 -20.941 198 192 194
9.986968 -46.98332 -21.126 193 192 194
9.986968 -46.98332 -21.322 193 192 194
9.986968 -46.98332 -21.517 195 194 194
9.986968 -46.98332 -21.713 195 195 195
9.986968 -46.98332 -21.909 196 195 195
10.053066 -47.29569 -22.094 196 195 193
10.119164 -47.60806 -22.278 199 195 194
10.119164 -47.60806 -22.474 207 199 195
10.119164 -47.60806 -22.669 203 202 200
10.119164 -47.60806 -22.864 205 201 200
10.119164 -47.60806 -23.06 202 201 201
10.185263 -47.920433 -23.244 203 202 202
10.185263 -47.920433 -23.439 203 202 200
10.185263 -47.920433 -23.635 203 199 198
10.251713 -48.23172 -23.818 201 200 200
10.251713 -48.23172 -24.014 199 199 199
10.251713 -48.23172 -24.209 200 199 199
10.251713 -48.23172 -24.404 202 201 201
10.318163 -48.543007 -24.587 203 202 202
10.251713 -48.23172 -24.795 203 202 202
10.318163 -48.543007 -24.978 203 203 203
10.318163 -48.543007 -25.173 204 204 204
10.384612 -48.854298 -25.356 206 206 206
10.384612 -48.854298 -25.551 205 204 204
10.384612 -48.854298 -25.746 205 204 206
10.384612 -48.854298 -25.941 207 201 203
10.384612 -48.854298 -26.136 208 199 202
10.384612 -48.854298 -26.331 205 199 201
10.384612 -48.854298 -26.526 207 201 203
10.384612 -48.854298 -26.721 207 201 203
10.44998 -49.165234 -26.903 203 202 200
10.44998 -49.165234 -27.098 207 201 203
10.44998 -49.165234 -27.293 210 206 207
10.516781 -49.47544 -27.475 210 206 209
10.516781 -49.47544 -27.669 211 207 210
10.845728 -51.023624 -27.797 204 204 204
10.582149 -49.786377 -28.046 210 209 211
10.582149 -49.786377 -28.24 210 209 209
10.582149 -49.786377 -28.435 210 206 207
10.582149 -49.786377 -28.63 210 206 205
10.516781 -49.47544 -28.839 211 205 205
10.516781 -49.47544 -29.033 210 206 207
10.582149 -49.786377 -29.214 210 206 207
10.582149 -49.786377 -29.409 210 204 204
10.647867 -50.09623 -29.589 204 203 205
10.647867 -50.09623 -29.784 204 204 206
10.647867 -50.09623 -29.979 207 206 206
10.647867 -50.09623 -30.173 214 213 213
10.647867 -50.09623 -30.368 204 204 204
10.647867 -50.09623 -30.563 203 202 202
10.647867 -50.09623 -30.757 204 200 199
10.713938 -50.405003 -30.937 200 199 199
10.713938 -50.405003 -31.132 201 200 202
10.713938 -50.405003 -31.326 201 200 202
10.713938 -50.405003 -31.521 201 200 200
10.713938 -50.405003 -31.715 202 198 201
10.713938 -50.405003 -31.91 200 199 201
10.713938 -50.405003 -32.104 202 201 201
10.713938 -50.405003 -32.299 204 203 205
10.713938 -50.405003 -32.494 205 204 204
10.713938 -50.405003 -32.688 204 203 203
10.713938 -50.405003 -32.883 204 203 201
10.713938 -50.405003 -33.077 207 206 204
10.713938 -50.405003 -33.272 216 215 215
10.713938 -50.405003 -33.466 212 213 215
10.713938 -50.405003 -33.661 219 215 214
10.713938 -50.405003 -33.856 219 215 218
10.713938 -50.405003 -34.05 217 216 220
10.713938 -50.405003 -34.245 219 215 220
10.713938 -50.405003 -34.439 217 216 223
10.713938 -50.405003 -34.634 220 218 225
10.779657 -50.714855 -34.812 219 218 222
10.779657 -50.714855 -35.006 222 221 225
10.779657 -50.714855 -35.201 222 221 223
10.845728 -51.023624 -35.378 219 218 220
10.845728 -51.023624 -35.572 217 217 221
10.845728 -51.023624 -35.767 216 216 220
10.845728 -51.023624 -35.961 216 215 222
10.845728 -51.023624 -36.156 215 214 221
10.845728 -51.023624 -36.35 215 215 219
10.845728 -51.023624 -36.544 215 215 219
10.779657 -50.714855 -36.756 216 215 219
10.779657 -50.714855 -36.951 216 215 219
10.779657 -50.714855 -37.145 217 216 218
10.779657 -50.714855 -37.34 217 216 218
10.779657 -50.714855 -37.534 217 216 216
10.779657 -50.714855 -37.729 217 216 216
10.779657 -50.714855 -37.923 217 216 216
10.779657 -50.714855 -38.118 217 216 216
10.779657 -50.714855 -38.312 216 215 215
10.779657 -50.714855 -38.507 216 215 217
10.845728 -51.023624 -38.683 217 216 218
10.845728 -51.023624 -38.877 216 215 217
10.845728 -51.023624 -39.071 213 213 215
10.845728 -51.023624 -39.266 210 210 212
10.845728 -51.023624 -39.46 210 209 211
10.845728 -51.023624 -39.654 208 208 212
10.845728 -51.023624 -39.849 208 208 212
10.845728 -51.023624 -40.043 208 207 211
10.845728 -51.023624 -40.238 207 207 211
10.845728 -51.023624 -40.432 208 207 211
10.845728 -51.023624 -40.626 207 207 211
10.845728 -51.023624 -40.821 207 208 212
10.845728 -51.023624 -41.015 208 208 212
10.845728 -51.023624 -41.21 208 209 213
10.845728 -51.023624 -41.404 210 210 214
10.779657 -50.714855 -41.618 214 213 217
10.779657 -50.714855 -41.813 215 214 216
10.779657 -50.714855 -42.007 217 216 218
10.779657 -50.714855 -42.202 216 216 218
10.779657 -50.714855 -42.396 216 216 218
10.845728 -51.023624 -42.57 216 217 219
10.845728 -51.023624 -42.765 216 217 217
10.845728 -51.023624 -42.959 215 216 216
10.845728 -51.023624 -43.153 213 214 216
10.845728 -51.023624 -43.348 209 210 210
10.845728 -51.023624 -43.542 207 208 210
10.779657 -50.714855 -43.758 211 211 213
10.779657 -50.714855 -43.952 212 211 213
10.779657 -50.714855 -44.147 210 210 214
10.779657 -50.714855 -44.341 210 209 211
11.107114 -52.256573 -44.428 202 202 204
11.107114 -52.256573 -44.622 204 203 205
11.107114 -52.256573 -44.816 204 203 205
11.107114 -52.256573 -45.01 205 201 204
11.041775 -51.949234 -45.226 206 200 202
11.041775 -51.949234 -45.42 205 199 199
10.713938 -50.405003 -45.725 211 205 207
10.713938 -50.405003 -45.919 211 205 205
10.713938 -50.405003 -46.114 211 205 207
10.713938 -50.405003 -46.308 210 206 207
10.647867 -50.09623 -46.525 207 203 204
10.647867 -50.09623 -46.72 205 204 204
10.647867 -50.09623 -46.915 205 204 204
10.647867 -50.09623 -47.109 205 204 204
10.647867 -50.09623 -47.304 205 204 206
10.582149 -49.786377 -47.522 202 202 206
10.647867 -50.09623 -47.693 204 204 208
10.582149 -49.786377 -47.911 203 203 210
10.582149 -49.786377 -48.106 203 203 210
10.582149 -49.786377 -48.301 203 203 210
10.582149 -49.786377 -48.495 205 204 208
10.516781 -49.47544 -48.714 205 204 204
10.516781 -49.47544 -48.909 207 203 204
10.516781 -49.47544 -49.104 205 204 204
10.516781 -49.47544 -49.298 205 204 204
10.516781 -49.47544 -49.493 204 203 203
10.516781 -49.47544 -49.688 205 201 202
10.516781 -49.47544 -49.883 201 200 200
10.516781 -49.47544 -50.078 199 195 196
10.44998 -49.165234 -50.297 194 188 190
10.44998 -49.165234 -50.492 194 185 186
10.384612 -48.854298 -50.711 195 186 185
10.384612 -48.854298 -50.907 198 192 192
10.384612 -48.854298 -51.102 200 194 194
10.384612 -48.854298 -51.297 201 195 197
10.384612 -48.854298 -51.492 204 198 200
10.384612 -48.854298 -51.687 204 200 203
10.384612 -48.854298 -51.882 205 201 202
10.318163 -48.543007 -52.102 203 197 199
10.318163 -48.543007 -52.297 200 196 199
10.318163 -48.543007 -52.492 202 193 196
10.318163 -48.543007 -52.687 202 193 196
10.251713 -48.23172 -52.908 203 192 196
10.251713 -48.23172 -53.103 203 192 196
10.251713 -48.23172 -53.299 203 192 196
10.251713 -48.23172 -53.494 202 193 196
10.251713 -48.23172 -53.689 202 193 196
10.185263 -47.920433 -53.911 201 195 199
10.185263 -47.920433 -54.106 200 194 198
10.185263 -47.920433 -54.301 198 194 197
10.119164 -47.60806 -54.523 196 195 199
10.119164 -47.60806 -54.718 196 195 199
10.119164 -47.60806 -54.914 196 195 197
10.119164 -47.60806 -55.109 195 194 196
10.053066 -47.29569 -55.332 198 197 199
10.053066 -47.29569 -55.527 195 194 194
10.053066 -47.29569 -55.723 191 190 190
10.053066 -47.29569 -55.918 190 189 189
9.986968 -46.98332 -56.141 191 187 190
9.986968 -46.98332 -56.337 192 186 188
9.986968 -46.98332 -56.532 192 186 188
10.251713 -48.23172 -56.618 189 185 188
9.919787 -46.670593 -56.951 191 187 188
9.854041 -46.35714 -57.175 191 185 187
9.854041 -46.35714 -57.37 189 185 188
9.854041 -46.35714 -57.566 188 184 185
9.78686 -46.04442 -57.79 190 186 185
9.78686 -46.04442 -57.986 191 185 185
9.720384 -45.729527 -58.21 191 187 188
9.720384 -45.729527 -58.406 190 186 187
9.720384 -45.729527 -58.602 190 184 186
9.653554 -45.41572 -58.827 189 183 185
9.586725 -45.101917 -59.052 190 184 186
9.586725 -45.101917 -59.248 189 183 185
9.586725 -45.101917 -59.444 189 183 185
9.519165 -44.786674 -59.669 190 184 186
9.452688 -44.471786 -59.895 189 183 187
9.452688 -44.471786 -60.091 187 181 185
9.385128 -44.156548 -60.317 185 181 184
9.319002 -43.840576 -60.543 182 181 183
9.251794 -43.524254 -60.769 180 179 179
9.251794 -43.524254 -60.966 178 174 175
9.184587 -43.207928 -61.193 177 173 174
9.117378 -42.891605 -61.419 172 171 171
9.049087 -42.574932 -61.646 175 174 176
9.117378 -42.891605 -61.813 173 172 172
8.98223 -42.257526 -62.071 174 174 176
8.98223 -42.257526 -62.268 175 175 177
8.98223 -42.257526 -62.465 175 175 177
8.98223 -42.257526 -62.662 175 175 177
8.914291 -41.939766 -62.89 175 175 179
8.847435 -41.62236 -63.118 177 176 180
8.711908 -40.985764 -63.377 175 174 176
8.711908 -40.985764 -63.574 172 172 174
8.644321 -40.66692 -63.803 172 171 173
8.575651 -40.34773 -64.032 171 172 176
8.508063 -40.02889 -64.261 170 169 173
8.440828 -39.708965 -64.491 166 164 171
8.304192 -39.068413 -64.752 162 161 165
8.304192 -39.068413 -64.95 156 155 157
8.235873 -38.74814 -65.18 153 149 150
8.167907 -38.42678 -65.411 150 144 146
8.235873 -38.74814 -65.577 141 137 138
8.09994 -38.105423 -65.84 139 135 136
6.743407 -27.45628 -1.007 101 100 104
6.5011845 -26.465895 -1.211 160 159 159
6.5818195 -26.796389 -1.412 167 166 164
6.6627717 -27.125788 -1.613 168 167 165
6.6627717 -27.125788 -1.814 171 166 161
6.6627717 -27.125788 -2.016 176 171 166
6.743407 -27.45628 -2.216 177 172 167
6.824359 -27.785679 -2.417 176 172 169
6.824359 -27.785679 -2.618 182 178 175
6.905629 -28.113985 -2.818 186 182 179
6.986582 -28.443384 -3.018 191 187 188
6.986582 -28.443384 -3.219 196 195 195
6.986582 -28.443384 -3.42 204 203 203
7.0667586 -28.771372 -3.62 213 213 213
7.549408 -30.733835 -3.809 200 200 200
7.1469355 -29.09936 -4.02 202 201 201
7.2285233 -29.426573 -4.219 196 197 197
7.3087 -29.75456 -4.417 195 194 192
7.3087 -29.75456 -4.618 186 187 187
7.4685955 -30.408033 -4.814 183 183 183
7.4685955 -30.408033 -5.015 175 181 181
7.628809 -31.060411 -5.21 179 180 182
7.78934 -31.711699 -5.405 176 176 176
8.345857 -33.978977 -5.586 172 173 175
7.948002 -32.361256 -5.8 181 181 183
8.108392 -33.00894 -5.994 180 180 184
8.266596 -33.655994 -6.187 180 180 182
8.4251175 -34.301956 -6.381 179 179 181
8.504378 -34.624935 -6.577 179 178 180
8.583957 -34.946823 -6.773 180 180 184
8.662442 -35.26839 -6.968 180 180 182
8.742021 -35.59028 -7.164 178 179 183
8.820505 -35.911846 -7.359 179 179 181
8.899308 -36.232323 -7.554 176 176 180
8.97811 -36.552795 -7.749 179 178 180
9.056913 -36.873272 -7.944 176 176 176
9.135716 -37.19375 -8.139 175 175 177
9.213743 -37.512814 -8.333 171 171 171
9.292864 -37.832195 -8.527 177 173 174
9.370891 -38.15126 -8.721 176 176 176
9.448917 -38.470325 -8.915 181 181 183
9.527263 -38.788296 -9.109 182 182 182
9.527263 -38.788296 -9.307 184 183 183
9.683951 -39.424236 -9.496 182 182 182
9.683951 -39.424236 -9.693 186 186 186
9.838772 -40.058453 -9.882 182 183 183
9.838772 -40.058453 -10.079 190 189 189
9.917435 -40.37533 -10.272 194 193 193
9.917435 -40.37533 -10.469 198 197 197
9.995004 -40.69189 -10.662 199 195 196
9.995004 -40.69189 -10.859 206 202 203
10.072573 -41.00845 -11.051 204 200 201
10.150459 -41.323917 -11.243 204 200 201
10.150459 -41.323917 -11.44 202 201 201
10.150459 -41.323917 -11.637 202 201 201
10.150459 -41.323917 -11.835 202 201 201
10.30514 -41.954533 -12.02 195 194 194
10.227253 -41.63907 -12.223 202 201 201
10.227253 -41.63907 -12.42 205 204 204
10.30514 -41.954533 -12.611 209 205 204
10.30514 -41.954533 -12.808 216 212 211
10.381932 -42.269684 -12.999 217 213 214
10.460136 -42.584057 -13.189 216 215 215
10.460136 -42.584057 -13.386 212 208 209
10.460136 -42.584057 -13.583 204 203 203
10.460136 -42.584057 -13.78 204 200 201
10.460136 -42.584057 -13.977 202 198 199
10.537248 -42.898113 -14.167 199 195 194
10.614359 -43.21217 -14.357 198 194 195
10.537248 -42.898113 -14.56 198 194 195
10.537248 -42.898113 -14.757 198 194 195
10.614359 -43.21217 -14.946 196 195 195
10.69147 -43.526226 -15.136 196 196 196
10.69147 -43.526226 -15.332 196 196 196
10.69147 -43.526226 -15.529 195 195 197
10.69147 -43.526226 -15.725 195 195 195
10.767488 -43.839966 -15.914 196 195 195
10.844916 -44.152927 -16.103 196 195 195
10.844916 -44.152927 -16.299 196 195 193
10.921251 -44.465572 -16.488 196 195 193
10.921251 -44.465572 -16.684 194 194 194
10.99868 -44.778534 -16.872 196 195 195
10.99868 -44.778534 -17.068 195 195 195
10.99868 -44.778534 -17.264 195 195 195
11.075333 -45.090088 -17.452 196 195 195
11.075333 -45.090088 -17.648 194 193 193
11.075333 -45.090088 -17.844 195 191 192
11.151986 -45.401638 -18.031 196 192 193
11.151986 -45.401638 -18.227 197 193 194
11.228321 -45.714283 -18.414 197 196 196
11.228321 -45.714283 -18.61 198 194 195
11.228321 -45.714283 -18.806 198 194 195
11.305292 -46.024742 -18.993 198 194 195
11.305292 -46.024742 -19.189 199 193 195
11.305292 -46.024742 -19.385 198 194 195
11.380852 -46.335976 -19.571 199 193 195
11.457822 -46.646435 -19.757 198 192 196
11.457822 -46.646435 -19.953 198 192 194
11.457822 -46.646435 -20.148 198 194 195
11.533699 -46.956577 -20.334 198 194 195
11.457822 -46.646435 -20.539 200 199 199
11.533699 -46.956577 -20.725 200 196 197
11.609576 -47.266716 -20.91 197 197 197
11.609576 -47.266716 -21.106 202 202 202
11.609576 -47.266716 -21.301 206 206 206
11.685454 -47.57686 -21.486 202 201 201
11.685454 -47.57686 -21.681 202 201 201
11.685454 -47.57686 -21.877 203 199 200
11.761649 -47.885906 -22.061 201 200 200
11.761649 -47.885906 -22.257 200 199 201
11.761649 -47.885906 -22.452 200 199 201
11.761649 -47.885906 -22.647 200 199 203
11.761649 -47.885906 -22.842 201 201 203
11.761649 -47.885906 -23.038 201 201 203
11.837844 -48.194954 -23.222 201 201 201
11.914039 -48.504 -23.405 201 201 201
11.914039 -48.504 -23.6 203 202 202
11.914039 -48.504 -23.795 203 203 203
11.914039 -48.504 -23.99 207 206 208
11.914039 -48.504 -24.185 208 207 209
11.914039 -48.504 -24.381 215 214 218
11.914039 -48.504 -24.576 211 210 214
11.9891405 -48.812733 -24.759 208 207 207
11.9891405 -48.812733 -24.954 204 203 203
12.065653 -49.120686 -25.136 205 201 202
12.065653 -49.120686 -25.331 202 198 199
12.065653 -49.120686 -25.526 199 195 196
12.065653 -49.120686 -25.721 197 196 198
12.065653 -49.120686 -25.916 200 199 199
12.065653 -49.120686 -26.111 200 199 199
12.065653 -49.120686 -26.305 203 202 202
12.065653 -49.120686 -26.5 203 202 202
12.065653 -49.120686 -26.695 204 203 203
12.140755 -49.429417 -26.877 207 206 206
12.140755 -49.429417 -27.072 207 206 206
12.216174 -49.737053 -27.253 210 209 209
12.216174 -49.737053 -27.448 209 208 208
12.216174 -49.737053 -27.643 208 207 207
12.216174 -49.737053 -27.837 207 207 207
12.291911 -50.043594 -28.018 207 206 206
12.291911 -50.043594 -28.213 206 206 206
12.291911 -50.043594 -28.408 205 204 204
12.291911 -50.043594 -28.602 205 204 204
12.291911 -50.043594 -28.797 207 206 206
12.216174 -49.737053 -29.005 209 208 208
12.216174 -49.737053 -29.2 205 204 204
12.291911 -50.043594 -29.38 208 207 207
12.291911 -50.043594 -29.575 210 206 207
12.291911 -50.043594 -29.77 207 206 208
12.291911 -50.043594 -29.964 205 204 206
12.36733 -50.351234 -30.144 203 202 204
12.36733 -50.351234 -30.339 203 202 202
12.36733 -50.351234 -30.533 202 202 204
12.36733 -50.351234 -30.728 207 206 206
12.36733 -50.351234 -30.922 208 207 207
12.443067 -50.657776 -31.102 212 208 209
12.443067 -50.657776 -31.296 210 209 209
12.443067 -50.657776 -31.49 210 209 209
12.443067 -50.657776 -31.685 209 209 211
12.443067 -50.657776 -31.879 209 209 211
12.443067 -50.657776 -32.073 210 210 212
12.443067 -50.657776 -32.268 211 211 215
12.443067 -50.657776 -32.462 212 211 213
12.36733 -50.351234 -32.672 215 215 217
12.36733 -50.351234 -32.867 215 214 216
12.36733 -50.351234 -33.061 214 213 215
12.36733 -50.351234 -33.256 216 215 219
12.443067 -50.657776 -33.434 217 216 216
12.443067 -50.657776 -33.629 221 221 221
12.443067 -50.657776 -33.823 223 223 225
12.443067 -50.657776 -34.017 225 225 227
12.443067 -50.657776 -34.212 223 224 228
12.443067 -50.657776 -34.406 223 224 226
12.443067 -50.657776 -34.6 222 223 227
12.443067 -50.657776 -34.795 221 222 226
12.443067 -50.657776 -34.989 220 221 225
12.443067 -50.657776 -35.184 220 221 225
12.443067 -50.657776 -35.378 220 221 225
12.443067 -50.657776 -35.572 222 221 225
12.443067 -50.657776 -35.767 223 221 228
12.517711 -50.964 -35.944 223 222 226
12.517711 -50.964 -36.138 221 221 225
12.517711 -50.964 -36.332 217 218 222
12.517711 -50.964 -36.527 215 216 220
12.517711 -50.964 -36.721 215 216 220
12.517711 -50.964 -36.915 215 215 219
12.517711 -50.964 -37.11 214 215 219
12.517711 -50.964 -37.304 213 214 218
12.517711 -50.964 -37.498 214 214 218
12.517711 -50.964 -37.692 213 214 218
12.517711 -50.964 -37.887 214 214 216
12.593448 -51.270546 -38.063 212 213 215
12.593448 -51.270546 -38.257 211 211 213
12.517711 -50.964 -38.47 213 213 213
12.593448 -51.270546 -38.645 210 210 212
12.593448 -51.270546 -38.839 210 210 212
12.593448 -51.270546 -39.034 211 210 212
12.593448 -51.270546 -39.228 211 210 212
12.593448 -51.270546 -39.422 211 210 214
12.593448 -51.270546 -39.616 210 210 214
12.517711 -50.964 -39.83 215 215 219
12.593448 -51.270546 -40.005 214 214 218
12.593448 -51.270546 -40.199 215 215 219
12.517711 -50.964 -40.412 215 216 220
12.517711 -50.964 -40.607 215 216 220
12.517711 -50.964 -40.801 216 216 220
12.517711 -50.964 -40.995 216 216 218
12.517711 -50.964 -41.19 216 216 220
12.443067 -50.657776 -41.404 217 217 221
12.443067 -50.657776 -41.598 217 217 221
12.443067 -50.657776 -41.793 218 216 223
12.443067 -50.657776 -41.987 217 217 221
12.443067 -50.657776 -42.181 217 217 221
12.443067 -50.657776 -42.376 216 217 221
12.443067 -50.657776 -42.57 215 216 220
12.443067 -50.657776 -42.765 216 216 220
12.517711 -50.964 -42.938 215 216 220
12.443067 -50.657776 -43.153 210 211 215
12.443067 -50.657776 -43.348 212 213 217
12.443067 -50.657776 -43.542 214 214 218
12.36733 -50.351234 -43.758 214 215 215
12.443067 -50.657776 -43.931 213 214 216
12.443067 -50.657776 -44.125 210 211 213
12.443067 -50.657776 -44.32 210 210 212
12.443067 -50.657776 -44.514 208 208 208
12.443067 -50.657776 -44.708 209 208 208
12.443067 -50.657776 -44.903 209 205 206
12.443067 -50.657776 -45.097 206 202 203
12.443067 -50.657776 -45.292 205 201 202
12.36733 -50.351234 -45.508 204 203 203
12.36733 -50.351234 -45.702 204 204 204
12.291911 -50.043594 -45.919 209 208 208
12.216174 -49.737053 -46.136 209 208 210
12.216174 -49.737053 -46.331 207 206 208
12.216174 -49.737053 -46.525 204 203 203
12.291911 -50.043594 -46.697 203 202 202
12.216174 -49.737053 -46.915 205 201 202
12.216174 -49.737053 -47.109 203 202 202
12.216174 -49.737053 -47.304 204 203 203
12.291911 -50.043594 -47.476 206 206 208
12.291911 -50.043594 -47.67 207 206 208
12.291911 -50.043594 -47.865 204 204 206
12.291911 -50.043594 -48.059 203 202 202
12.291911 -50.043594 -48.254 202 201 201
12.216174 -49.737053 -48.472 200 199 199
12.216174 -49.737053 -48.667 198 197 197
12.216174 -49.737053 -48.861 197 196 196
12.216174 -49.737053 -49.056 196 195 195
12.216174 -49.737053 -49.251 196 195 197
12.517711 -50.964 -49.35 193 192 192
12.517711 -50.964 -49.544 191 190 190
12.140755 -49.429417 -49.859 196 195 195
12.140755 -49.429417 -50.054 196 195 195
12.140755 -49.429417 -50.248 196 195 195
12.065653 -49.120686 -50.468 199 199 199
12.065653 -49.120686 -50.662 199 199 201
12.065653 -49.120686 -50.857 200 199 201
12.065653 -49.120686 -51.052 198 197 199
12.065653 -49.120686 -51.247 198 197 199
12.443067 -50.657776 -51.318 199 195 196
12.443067 -50.657776 -51.512 201 195 197
11.9891405 -48.812733 -51.857 199 195 196
11.9891405 -48.812733 -52.052 198 194 195
11.914039 -48.504 -52.272 196 195 195
11.914039 -48.504 -52.467 195 194 196
11.914039 -48.504 -52.662 194 193 195
11.914039 -48.504 -52.857 192 192 194
11.914039 -48.504 -53.052 190 190 194
11.837844 -48.194954 -53.273 194 194 196
11.837844 -48.194954 -53.468 197 197 199
12.216174 -49.737053 -53.533 196 195 197
11.837844 -48.194954 -53.858 202 202 204
11.837844 -48.194954 -54.053 202 201 201
11.761649 -47.885906 -54.275 201 200 200
11.685454 -47.57686 -54.497 198 197 197
11.685454 -47.57686 -54.692 196 195 195
12.065653 -49.120686 -54.754 195 194 194
11.685454 -47.57686 -55.083 194 193 193
11.609576 -47.266716 -55.305 193 193 195
11.609576 -47.266716 -55.5 193 193 193
11.609576 -47.266716 -55.696 192 192 192
11.533699 -46.956577 -55.918 194 194 194
11.533699 -46.956577 -56.114 195 194 194
11.533699 -46.956577 -56.309 194 194 194
11.457822 -46.646435 -56.532 196 196 198
11.457822 -46.646435 -56.728 198 197 199
11.457822 -46.646435 -56.923 198 197 199
11.837844 -48.194954 -56.98 184 183 183
11.380852 -46.335976 -57.342 200 199 201
11.380852 -46.335976 -57.538 199 199 199
11.305292 -46.024742 -57.762 200 200 200
11.305292 -46.024742 -57.958 203 203 203
11.609576 -47.266716 -58.041 188 188 188
11.228321 -45.714283 -58.378 201 201 201
11.151986 -45.401638 -58.602 200 199 199
11.151986 -45.401638 -58.798 196 196 198
11.075333 -45.090088 -59.023 196 192 193
11.075333 -45.090088 -59.219 192 188 189
10.99868 -44.778534 -59.444 191 187 188
10.99868 -44.778534 -59.64 188 187 187
10.921251 -44.465572 -59.866 188 187 187
10.844916 -44.152927 -60.091 185 185 185
10.844916 -44.152927 -60.288 182 181 183
10.767488 -43.839966 -60.513 179 178 178
10.767488 -43.839966 -60.71 175 175 175
10.69147 -43.526226 -60.936 178 178 178
10.614359 -43.21217 -61.163 178 178 180
10.614359 -43.21217 -61.359 178 178 178
10.537248 -42.898113 -61.586 176 176 178
10.460136 -42.584057 -61.813 178 178 178
10.460136 -42.584057 -62.01 178 178 178
10.381932 -42.269684 -62.237 179 179 179
10.30514 -41.954533 -62.465 180 179 179
10.30514 -41.954533 -62.662 179 178 178
10.30514 -41.954533 -62.859 177 176 176
10.150459 -41.323917 -63.118 180 179 179
10.150459 -41.323917 -63.315 180 179 179
10.150459 -41.323917 -63.512 175 175 175
9.995004 -40.69189 -63.772 178 178 178
9.917435 -40.37533 -64.001 175 174 174
9.838772 -40.058453 -64.23 170 169 169
9.838772 -40.058453 -64.427 164 164 164
9.683951 -39.424236 -64.689 160 159 161
9.605607 -39.106266 -64.918 157 157 159
9.448917 -38.470325 -65.18 159 158 158
9.683951 -39.424236 -65.282 143 144 144
9.448917 -38.470325 -65.577 147 148 148
9.370891 -38.15126 -65.807 145 145 145
9.135716 -37.19375 -66.103 147 147 149
7.4202666 -26.576426 -0.807 140 139 141
7.602502 -27.230917 -1.007 141 142 144
7.2372117 -25.92055 -1.211 173 168 163
7.3292904 -26.248629 -1.413 175 167 161
7.3292904 -26.248629 -1.614 178 168 163
7.4202666 -26.576426 -1.815 179 171 165
7.5115256 -26.90312 -2.016 181 173 167
7.602502 -27.230917 -2.216 182 174 170
7.693761 -27.55761 -2.417 182 178 175
7.693761 -27.55761 -2.618 186 180 178
7.7853036 -27.883202 -2.818 190 184 182
7.8765626 -28.209894 -3.018 194 188 188
7.8765626 -28.209894 -3.219 200 194 194
7.8765626 -28.209894 -3.42 203 199 200
8.057442 -28.860512 -3.618 211 205 205
8.057442 -28.860512 -3.819 202 202 206
8.149267 -29.185 -4.018 198 197 197
8.239707 -29.510307 -4.216 194 193 193
8.329327 -29.834229 -4.415 189 188 188
8.42005 -30.158434 -4.613 186 185 185
8.511056 -30.481537 -4.812 174 174 174
8.600676 -30.80546 -5.01 179 178 178
8.690578 -31.128279 -5.207 177 176 176
8.781585 -31.451382 -5.405 176 176 178
8.960571 -32.095634 -5.6 179 179 181
9.23031 -33.0594 -5.791 179 179 181
9.319677 -33.37973 -5.988 179 179 183
9.498411 -34.02039 -6.181 181 182 186
9.498411 -34.02039 -6.381 185 186 188
9.677427 -34.65995 -6.573 185 185 187
9.677427 -34.65995 -6.773 188 188 192
9.855624 -35.298122 -6.965 186 186 188
10.033002 -35.93491 -7.157 182 182 184
10.121832 -36.25275 -7.352 181 180 182
10.210662 -36.570595 -7.547 172 171 173
10.299492 -36.888435 -7.742 175 169 173
10.387503 -37.20489 -7.936 173 172 174
10.476616 -37.52163 -8.131 177 173 176
10.564627 -37.83809 -8.325 181 180 184
10.6526375 -38.154545 -8.519 184 183 187
10.7409315 -38.4699 -8.713 185 185 187
10.7409315 -38.4699 -8.911 189 188 190
10.829225 -38.78525 -9.104 189 188 190
10.917519 -39.100605 -9.298 187 187 187
11.092184 -39.72964 -9.486 186 186 188
11.092184 -39.72964 -9.684 189 189 191
11.18076 -40.04389 -9.877 192 192 194
11.18076 -40.04389 -10.074 197 197 199
11.268235 -40.35786 -10.267 200 200 202
11.355709 -40.67183 -10.459 202 202 202
11.355709 -40.67183 -10.656 207 207 207
11.355709 -40.67183 -10.854 210 209 209
11.530121 -41.297276 -11.04 208 207 207
11.530121 -41.297276 -11.237 209 208 208
11.530121 -41.297276 -11.434 211 207 208
11.530121 -41.297276 -11.632 209 208 208
11.617878 -41.61014 -11.823 207 206 206
11.704533 -41.92272 -12.014 205 204 204
11.704533 -41.92272 -12.211 204 203 203
11.792573 -42.234486 -12.402 203 202 202
11.704533 -41.92272 -12.605 203 202 202
11.704533 -41.92272 -12.802 204 203 203
11.792573 -42.234486 -12.993 205 201 202
11.792573 -42.234486 -13.189 203 202 202
11.879511 -42.545963 -13.38 203 202 202
11.879511 -42.545963 -13.576 205 201 202
11.879511 -42.545963 -13.773 203 202 202
11.879511 -42.545963 -13.97 204 203 201
11.966449 -42.85744 -14.16 204 200 201
11.966449 -42.85744 -14.357 204 200 199
12.139221 -43.480118 -14.539 199 195 196
12.053386 -43.168922 -14.743 200 199 199
12.053386 -43.168922 -14.939 198 197 197
12.139221 -43.480118 -15.128 197 196 196
12.139221 -43.480118 -15.325 195 195 195
12.226441 -43.790493 -15.514 192 193 195
12.31256 -44.100586 -15.702 194 193 193
12.31256 -44.100586 -15.899 193 192 192
12.31256 -44.100586 -16.095 189 188 188
12.39978 -44.41096 -16.283 193 189 190
12.39978 -44.41096 -16.48 195 186 185
12.39978 -44.41096 -16.676 197 191 191
12.486182 -44.71995 -16.864 194 193 193
12.572583 -45.028942 -17.051 193 192 192
