ply
format ascii 1.0
element vertex 1217
property float x
property float y
property float z
property uchar red
property uchar green
property uchar blue
end_header
21.572948 20.795656 -44.217 179 179 179
21.572948 20.795656 -44.418 212 211 211
21.572948 20.795656 -44.619 222 222 222
21.572948 20.795656 -44.82 217 216 216
21.572948 20.795656 -45.021 218 217 217
21.572948 20.795656 -45.222 219 218 218
21.814915 21.030554 -45.4 222 221 221
22.05826 21.264622 -45.578 220 219 219
22.05826 21.264622 -45.779 224 223 223
22.05826 21.264622 -45.98 225 224 224
22.05826 21.264622 -46.181 227 226 226
22.05826 21.264622 -46.381 231 230 230
22.05826 21.264622 -46.582 232 231 231
22.300776 21.497309 -46.76 232 231 231
22.05826 21.264622 -46.984 233 232 232
22.05826 21.264622 -47.185 233 232 232
22.05826 21.264622 -47.385 233 232 232
22.05826 21.264622 -47.586 233 232 232
22.300776 21.497309 -47.763 233 232 232
22.543016 21.731102 -47.94 233 232 232
23.026669 22.197308 -48.093 233 232 232
2.095533 2.052003 -6.062 185 185 187
2.3567927 2.3071527 -6.267 180 180 182
2.877107 2.8168862 -6.47 180 179 179
3.3963182 3.3263366 -6.671 194 193 191
4.1732283 4.086496 -6.869 172 168 169
4.4325657 4.339977 -7.074 187 186 186
4.6908 4.5931745 -7.278 197 197 197
4.6908 4.5931745 -7.486 201 200 200
5.9773097 5.8544393 -7.674 197 197 197
5.20645 5.098184 -7.894 200 199 199
5.4638653 5.349996 -8.097 176 175 175
5.9773097 5.8544393 -8.296 176 175 175
6.2350082 6.1051483 -8.499 187 186 184
6.4913206 6.356677 -8.702 189 188 188
7.0031257 6.858349 -8.9 189 188 188
7.0031257 6.858349 -9.107 191 190 190
7.2586184 7.108492 -9.309 193 192 192
7.5141115 7.3586345 -9.511 193 192 192
8.024278 7.8575344 -9.708 190 189 189
8.278667 8.107394 -9.91 189 188 190
8.53334 8.356151 -10.111 188 188 192
8.786911 8.604625 -10.312 186 186 190
9.041584 8.853382 -10.513 185 184 191
9.295155 9.101855 -10.713 184 183 187
9.547623 9.350046 -10.914 183 183 185
9.547623 9.350046 -11.12 186 186 188
9.547623 9.350046 -11.326 187 187 189
10.053944 9.845608 -11.52 186 187 191
10.306695 10.092696 -11.72 182 183 185
10.558343 10.339501 -11.919 178 178 180
10.809991 10.586306 -12.118 170 171 173
10.809991 10.586306 -12.324 171 175 176
11.061639 10.833111 -12.523 186 186 186
11.061639 10.833111 -12.728 193 193 195
11.31357 11.078813 -12.927 207 208 210
11.31357 11.078813 -13.132 210 209 209
11.565218 11.325618 -13.33 204 204 206
11.565218 11.325618 -13.535 204 204 206
11.816047 11.571036 -13.734 201 200 200
11.816047 11.571036 -13.939 201 201 201
11.816047 11.571036 -14.143 199 204 209
12.066875 11.816456 -14.341 210 216 214
12.316601 12.061591 -14.539 216 215 215
12.316601 12.061591 -14.743 211 211 209
12.316601 12.061591 -14.948 209 209 209
12.56743 12.307011 -15.145 209 209 211
12.56743 12.307011 -15.35 209 208 208
13.316071 13.039929 -15.531 207 207 207
12.817439 12.5510435 -15.751 208 207 207
12.817439 12.5510435 -15.956 207 207 207
13.067164 12.796179 -16.152 208 208 208
13.316071 13.039929 -16.348 204 204 204
13.316071 13.039929 -16.553 198 197 197
13.566079 13.283962 -16.748 188 188 188
13.566079 13.283962 -16.953 194 193 193
13.814703 13.528815 -17.148 193 193 193
13.814703 13.528815 -17.352 191 190 190
14.063892 13.771462 -17.548 186 185 185
14.063892 13.771462 -17.752 177 173 174
14.807586 14.50076 -17.929 183 183 183
14.311695 14.014929 -18.151 188 188 188
14.311695 14.014929 -18.355 195 195 195
14.311695 14.014929 -18.558 201 202 204
14.311695 14.014929 -18.762 204 204 206
14.559499 14.258395 -18.957 203 202 204
14.311695 14.014929 -19.17 202 201 203
14.807586 14.50076 -19.355 200 199 201
15.055672 14.743124 -19.548 200 196 197
15.055672 14.743124 -19.752 198 194 195
14.807586 14.50076 -19.966 196 195 195
15.055672 14.743124 -20.159 202 201 201
15.302656 14.985205 -20.353 211 210 210
16.289772 15.952143 -20.515 207 206 208
15.302656 14.985205 -20.76 216 215 215
15.550742 15.227569 -20.953 218 218 220
15.550742 15.227569 -21.156 222 221 223
15.550742 15.227569 -21.36 225 224 226
15.796623 15.469367 -21.552 226 225 227
15.796623 15.469367 -21.755 229 228 228
16.043608 15.711448 -21.948 229 229 231
16.043608 15.711448 -22.151 228 228 230
16.289772 15.952143 -22.343 225 225 225
16.289772 15.952143 -22.546 223 223 225
17.518387 17.155052 -22.692 224 224 224
16.536755 16.194223 -22.941 224 224 224
16.536755 16.194223 -23.144 225 224 224
16.536755 16.194223 -23.347 224 223 223
16.781816 16.434635 -23.538 222 221 221
16.781816 16.434635 -23.741 219 219 219
16.781816 16.434635 -23.944 222 221 221
16.781816 16.434635 -24.146 221 221 221
17.02798 16.675331 -24.337 223 222 222
17.273043 16.915743 -24.528 222 222 222
17.273043 16.915743 -24.73 224 223 223
17.273043 16.915743 -24.933 225 224 224
17.02798 16.675331 -25.148 224 224 224
17.02798 16.675331 -25.351 225 224 224
17.273043 16.915743 -25.541 224 224 224
17.273043 16.915743 -25.744 226 225 225
17.518387 17.155052 -25.933 229 228 228
17.763449 17.395464 -26.123 229 228 230
17.763449 17.395464 -26.325 227 226 226
18.741236 18.352953 -26.475 219 219 219
17.763449 17.395464 -26.73 223 222 222
17.763449 17.395464 -26.933 224 224 224
17.763449 17.395464 -27.135 224 225 225
17.763449 17.395464 -27.338 225 226 226
17.763449 17.395464 -27.54 225 226 226
17.763449 17.395464 -27.743 224 225 225
17.763449 17.395464 -27.945 223 223 223
17.763449 17.395464 -28.148 222 222 222
17.763449 17.395464 -28.35 224 223 223
17.518387 17.155052 -28.567 218 218 218
17.518387 17.155052 -28.77 217 217 217
17.763449 17.395464 -28.958 215 214 214
17.763449 17.395464 -29.16 210 206 207
17.518387 17.155052 -29.378 203 197 199
17.518387 17.155052 -29.58 202 198 199
17.763449 17.395464 -29.768 204 200 201
17.518387 17.155052 -29.986 196 192 191
17.518387 17.155052 -30.188 186 185 185
17.518387 17.155052 -30.391 179 178 178
17.763449 17.395464 -30.578 202 201 201
17.763449 17.395464 -30.78 203 203 203
17.763449 17.395464 -30.983 206 206 206
18.008793 17.634773 -31.17 215 214 214
18.008793 17.634773 -31.372 216 215 215
18.252752 17.8749 -31.559 218 217 215
18.252752 17.8749 -31.761 218 217 217
18.496994 18.113928 -31.947 208 208 208
18.496994 18.113928 -32.149 216 215 213
18.741236 18.352953 -32.335 224 223 221
19.71436 19.30572 -32.472 224 223 223
18.741236 18.352953 -32.74 232 231 231
18.984657 18.590593 -32.925 233 232 232
18.984657 18.590593 -33.127 234 233 233
18.984657 18.590593 -33.329 236 235 235
18.984657 18.590593 -33.531 236 235 235
19.227797 18.829336 -33.716 234 233 233
19.227797 18.829336 -33.918 233 232 230
20.442421 20.018074 -34.035 239 238 238
19.470936 19.068079 -34.305 234 233 231
19.470936 19.068079 -34.506 232 231 229
19.470936 19.068079 -34.708 232 231 229
19.470936 19.068079 -34.91 232 231 231
19.71436 19.30572 -35.094 231 230 228
19.71436 19.30572 -35.296 232 231 231
19.71436 19.30572 -35.498 232 231 229
19.956678 19.543077 -35.681 232 231 231
19.956678 19.543077 -35.883 233 232 232
19.956678 19.543077 -36.085 233 232 232
20.2001 19.780718 -36.268 233 232 232
20.2001 19.780718 -36.47 231 230 230
20.2001 19.780718 -36.671 231 230 230
20.442421 20.018074 -36.854 232 231 231
20.442421 20.018074 -37.055 232 231 231
20.442421 20.018074 -37.257 233 232 232
20.683638 20.255148 -37.439 231 230 230
20.683638 20.255148 -37.641 230 229 229
20.925957 20.492504 -37.823 229 228 228
20.925957 20.492504 -38.024 226 225 225
20.925957 20.492504 -38.225 224 224 224
21.167456 20.728476 -38.407 225 224 224
21.167456 20.728476 -38.609 224 223 223
21.408957 20.964447 -38.79 227 226 226
21.167456 20.728476 -39.011 229 228 228
21.64907 21.201239 -39.173 231 231 231
21.64907 21.201239 -39.374 230 230 230
22.610943 22.142887 -39.496 230 231 231
21.64907 21.201239 -39.775 225 225 229
21.89057 21.43721 -39.956 222 223 223
21.64907 21.201239 -40.177 203 202 202
21.64907 21.201239 -40.378 214 214 214
21.64907 21.201239 -40.579 216 216 216
21.64907 21.201239 -40.78 221 221 221
21.64907 21.201239 -40.981 216 215 215
21.64907 21.201239 -41.182 200 200 200
21.64907 21.201239 -41.382 204 203 203
21.64907 21.201239 -41.583 203 202 202
21.64907 21.201239 -41.784 202 201 201
21.64907 21.201239 -41.985 207 206 206
21.64907 21.201239 -42.186 215 214 214
22.610943 22.142887 -42.302 211 211 211
21.64907 21.201239 -42.588 209 208 208
21.64907 21.201239 -42.789 207 207 207
21.64907 21.201239 -42.99 204 203 203
21.64907 21.201239 -43.19 194 193 193
22.610943 22.142887 -43.305 187 186 186
22.610943 22.142887 -43.505 185 181 180
21.64907 21.201239 -43.793 176 172 169
21.64907 21.201239 -43.994 167 166 166
21.64907 21.201239 -44.195 191 190 190
21.64907 21.201239 -44.396 219 218 216
21.64907 21.201239 -44.597 220 219 219
21.64907 21.201239 -44.797 217 216 216
21.89057 21.43721 -44.976 217 216 216
21.89057 21.43721 -45.177 217 216 216
21.89057 21.43721 -45.377 219 218 218
21.89057 21.43721 -45.578 223 222 220
21.89057 21.43721 -45.779 224 223 223
21.89057 21.43721 -45.98 226 225 225
21.89057 21.43721 -46.181 229 228 226
21.89057 21.43721 -46.381 231 230 230
21.89057 21.43721 -46.582 232 231 231
22.13125 21.671795 -46.76 232 231 231
22.13125 21.671795 -46.96 232 231 231
22.13125 21.671795 -47.161 232 231 231
22.13125 21.671795 -47.362 232 231 231
22.371649 21.907482 -47.539 232 231 231
22.371649 21.907482 -47.739 232 231 231
22.371649 21.907482 -47.94 231 231 231
22.610943 22.142887 -48.116 231 231 231
2.3386 2.3255916 -6.059 191 185 187
2.079352 2.0683978 -6.271 182 176 182
2.3386 2.3255916 -6.476 175 169 171
3.1130419 3.096298 -6.675 190 189 189
4.398343 4.374656 -6.866 176 172 173
4.1410046 4.1191463 -7.077 190 186 185
4.1410046 4.1191463 -7.286 194 193 193
4.1410046 4.1191463 -7.494 201 200 200
4.654581 4.629874 -7.694 204 203 203
4.909719 4.8848004 -7.898 190 189 189
5.166249 5.138918 -8.101 181 180 180
5.6768165 5.64767 -8.301 177 176 176
6.1868668 6.153929 -8.499 182 181 183
6.1868668 6.153929 -8.707 184 183 183
6.6958165 6.659897 -8.905 189 188 188
6.6958165 6.659897 -9.112 190 190 190
7.202565 7.165281 -9.309 192 192 192
7.202565 7.165281 -9.516 192 192 192
7.709606 7.6695642 -9.713 189 189 191
7.709606 7.6695642 -9.92 188 188 188
8.214738 8.172164 -10.116 186 185 187
8.214738 8.172164 -10.323 176 176 178
8.71906 8.673371 -10.518 183 183 187
8.71906 8.673371 -10.724 183 183 187
8.971772 8.924121 -10.925 184 185 189
9.223383 9.174578 -11.125 186 186 188
9.725797 9.674101 -11.526 190 189 191
9.976307 9.924267 -11.726 190 189 191
10.22711 10.173332 -11.925 182 182 182
10.22711 10.173332 -12.131 173 173 173
10.22711 10.173332 -12.336 179 178 178
10.726514 10.67088 -12.529 180 181 181
10.726514 10.67088 -12.735 182 188 186
10.726514 10.67088 -12.94 185 191 191
10.976215 10.919654 -13.139 197 203 203
11.22621 11.167327 -13.337 201 205 204
11.22621 11.167327 -13.542 202 203 205
11.22621 11.167327 -13.748 201 201 203
11.22621 11.167327 -13.953 185 186 190
11.22621 11.167327 -14.158 184 178 180
11.475911 11.4161005 -14.356 183 182 182
11.724805 11.663482 -14.553 198 197 197
11.724805 11.663482 -14.758 201 201 203
11.724805 11.663482 -14.963 202 202 206
11.973698 11.910863 -15.161 205 206 210
12.221491 12.157952 -15.358 205 206 210
12.221491 12.157952 -15.562 205 204 208
12.221491 12.157952 -15.767 208 207 211
12.470385 12.4053335 -15.964 209 208 208
12.718469 12.651323 -16.16 209 208 210
12.718469 12.651323 -16.365 209 208 208
12.718469 12.651323 -16.569 206 206 208
12.966262 12.898413 -16.766 197 196 196
13.213245 13.14411 -16.961 194 193 195
13.213245 13.14411 -17.166 194 195 195
13.46133 13.3901 -17.361 192 192 188
13.46133 13.3901 -17.565 183 189 189
13.708022 13.636897 -17.761 173 177 176
13.708022 13.636897 -17.965 165 171 171
13.708022 13.636897 -18.169 170 176 176
13.955298 13.881494 -18.364 186 185 185
13.955298 13.881494 -18.568 194 194 194
13.955298 13.881494 -18.772 202 201 203
14.201182 14.126899 -18.966 205 204 206
14.201182 14.126899 -19.17 203 202 202
14.201182 14.126899 -19.374 201 200 200
14.447065 14.372305 -19.568 198 197 195
14.693241 14.61661 -19.762 195 195 195
14.693241 14.61661 -19.966 199 199 199
14.693241 14.61661 -20.17 200 199 199
14.693241 14.61661 -20.373 205 204 204
14.939417 14.860915 -20.567 210 209 211
14.939417 14.860915 -20.77 215 214 216
14.939417 14.860915 -20.974 215 215 217
15.430667 15.349233 -21.156 219 219 221
15.430667 15.349233 -21.36 223 223 223
15.184491 15.104928 -21.574 225 224 228
15.430667 15.349233 -21.766 226 225 225
15.674642 15.592955 -21.959 228 228 230
15.674642 15.592955 -22.162 227 226 230
15.674642 15.592955 -22.365 227 226 228
15.919716 15.836967 -22.557 225 224 226
15.919716 15.836967 -22.76 225 224 226
15.919716 15.836967 -22.964 224 223 225
15.919716 15.836967 -23.167 224 223 225
16.163982 16.079588 -23.358 223 222 224
16.163982 16.079588 -23.561 223 222 224
16.409058 16.323603 -23.753 220 221 223
16.409058 16.323603 -23.956 220 221 223
16.409058 16.323603 -24.159 221 222 224
16.409058 16.323603 -24.362 221 222 224
16.652224 16.565931 -24.552 220 224 227
16.89649 16.808552 -24.743 222 223 223
17.139656 17.050882 -24.933 222 222 224
17.139656 17.050882 -25.136 221 221 223
17.139656 17.050882 -25.338 223 223 223
17.139656 17.050882 -25.541 224 224 226
17.139656 17.050882 -25.744 223 224 224
17.139656 17.050882 -25.946 223 224 226
17.383112 17.29211 -26.136 224 225 227
17.383112 17.29211 -26.339 224 225 227
17.383112 17.29211 -26.541 224 224 226
17.383112 17.29211 -26.744 225 225 227
17.383112 17.29211 -26.946 229 229 231
17.383112 17.29211 -27.149 230 229 229
17.626278 17.53444 -27.338 228 228 228
17.626278 17.53444 -27.54 225 225 225
17.626278 17.53444 -27.743 224 223 225
17.626278 17.53444 -27.945 223 223 227
17.626278 17.53444 -28.148 218 217 217
17.626278 17.53444 -28.35 215 215 217
17.626278 17.53444 -28.553 216 215 215
17.383112 17.29211 -28.77 200 199 199
17.383112 17.29211 -28.972 202 202 202
17.383112 17.29211 -29.175 204 203 203
17.383112 17.29211 -29.378 204 200 199
17.139656 17.050882 -29.595 199 190 189
17.139656 17.050882 -29.798 195 183 180
17.139656 17.050882 -30.001 183 172 172
18.354158 18.258642 -30.127 206 202 199
18.354158 18.258642 -30.33 205 204 200
17.139656 17.050882 -30.609 198 193 188
17.383112 17.29211 -30.796 191 190 188
17.626278 17.53444 -30.983 202 201 201
17.383112 17.29211 -31.201 200 194 194
17.869736 17.775667 -31.372 213 207 207
17.869736 17.775667 -31.575 210 201 202
17.869736 17.775667 -31.777 216 207 210
18.111801 18.017706 -31.963 219 213 215
18.354158 18.258642 -32.149 220 219 217
18.354158 18.258642 -32.352 224 223 223
18.596516 18.499578 -32.537 227 226 226
18.354158 18.258642 -32.756 230 230 230
18.596516 18.499578 -32.942 232 231 231
20.04412 19.938757 -33.044 237 236 236
20.04412 19.938757 -33.246 239 238 238
18.838064 18.739124 -33.531 236 232 233
18.838064 18.739124 -33.733 236 232 233
19.07932 18.979769 -33.918 236 230 232
18.838064 18.739124 -34.137 235 229 231
18.838064 18.739124 -34.339 235 229 229
18.838064 18.739124 -34.541 235 229 231
19.320578 19.220415 -34.708 235 229 227
19.320578 19.220415 -34.91 235 230 225
19.320578 19.220415 -35.112 235 230 225
19.320578 19.220415 -35.314 235 230 225
19.320578 19.220415 -35.515 235 229 227
19.320578 19.220415 -35.717 235 229 227
19.562126 19.459959 -35.901 235 229 229
19.802574 19.699211 -36.085 231 230 228
19.562126 19.459959 -36.304 230 229 227
19.802574 19.699211 -36.488 226 225 223
19.802574 19.699211 -36.689 230 229 229
19.802574 19.699211 -36.891 233 232 232
19.802574 19.699211 -37.093 234 233 233
20.04412 19.938757 -37.275 237 236 234
20.284569 20.178009 -37.458 233 232 230
20.523916 20.416971 -37.641 232 231 229
20.284569 20.178009 -37.861 231 230 228
20.284569 20.178009 -38.062 229 225 224
20.523916 20.416971 -38.245 227 223 224
20.764364 20.656223 -38.427 222 221 223
20.764364 20.656223 -38.628 223 222 222
20.764364 20.656223 -38.829 226 225 227
21.004004 20.894083 -39.011 229 228 230
21.243643 21.131945 -39.192 230 230 232
21.243643 21.131945 -39.393 237 237 241
21.243643 21.131945 -39.594 231 231 233
21.243643 21.131945 -39.795 209 208 210
21.243643 21.131945 -39.996 196 192 193
21.243643 21.131945 -40.197 198 197 197
21.243643 21.131945 -40.398 218 217 219
21.243643 21.131945 -40.599 226 226 226
21.243643 21.131945 -40.8 218 219 219
21.48189 21.370613 -40.981 213 207 207
21.48189 21.370613 -41.182 206 206 208
21.243643 21.131945 -41.403 199 193 195
21.243643 21.131945 -41.604 204 200 203
21.243643 21.131945 -41.805 210 206 207
21.48189 21.370613 -41.985 214 213 213
21.48189 21.370613 -42.186 214 213 213
21.243643 21.131945 -42.408 211 211 211
21.243643 21.131945 -42.609 209 208 206
21.243643 21.131945 -42.81 207 203 204
21.243643 21.131945 -43.011 203 199 198
21.243643 21.131945 -43.212 196 190 188
21.243643 21.131945 -43.413 198 190 184
21.48189 21.370613 -43.592 191 187 184
21.48189 21.370613 -43.793 187 186 184
21.48189 21.370613 -43.994 181 180 180
21.48189 21.370613 -44.195 203 203 203
21.48189 21.370613 -44.396 220 219 219
21.48189 21.370613 -44.597 217 216 216
21.243643 21.131945 -44.82 219 218 218
21.243643 21.131945 -45.021 220 219 219
21.243643 21.131945 -45.222 223 222 222
21.48189 21.370613 -45.4 224 223 223
21.243643 21.131945 -45.624 226 225 225
21.721529 21.608475 -45.779 225 224 224
21.721529 21.608475 -45.98 226 225 225
21.721529 21.608475 -46.181 229 228 228
21.721529 21.608475 -46.381 231 230 230
21.721529 21.608475 -46.582 232 231 231
21.96036 21.844942 -46.76 232 231 231
21.96036 21.844942 -46.96 232 231 231
21.96036 21.844942 -47.161 232 231 231
21.721529 21.608475 -47.385 232 231 231
21.721529 21.608475 -47.586 232 231 231
21.96036 21.844942 -47.763 232 231 231
22.198898 22.082512 -47.94 232 231 231
1.5489035 1.5651226 -6.277 183 179 180
3.8542995 3.8943195 -6.456 190 189 191
2.8325062 2.8617303 -6.678 189 188 188
3.3436515 3.3792732 -6.88 194 193 193
4.363849 4.4090652 -7.074 190 186 187
4.1085253 4.151542 -7.286 195 194 194
4.363849 4.4090652 -7.49 204 200 203
4.6180754 4.666288 -7.694 201 200 202
4.871203 4.92321 -7.898 194 193 193
5.632285 5.692081 -8.093 188 187 189
6.1383433 6.2023306 -8.499 184 183 185
6.1383433 6.2023306 -8.707 186 185 187
6.643304 6.71228 -8.905 189 188 190
6.643304 6.71228 -9.112 190 190 190
7.1460676 7.221628 -9.309 192 192 192
7.1460676 7.221628 -9.516 190 190 192
7.3976 7.4757533 -9.718 188 189 193
7.6491323 7.7298784 -9.92 190 190 192
7.8998666 7.982605 -10.121 188 188 190
8.150301 8.236429 -10.323 179 179 179
8.401035 8.489156 -10.524 189 188 190
8.650672 8.741582 -10.724 185 186 190
8.901406 8.994308 -10.925 183 183 185
9.151042 9.246735 -11.125 189 188 188
9.399581 9.49886 -11.326 188 188 188
9.649517 9.750188 -11.526 190 189 189
9.649517 9.750188 -11.732 193 193 195
9.898055 10.002314 -11.931 186 186 186
10.146894 10.253342 -12.131 183 179 180
10.146894 10.253342 -12.336 180 179 179
10.394634 10.504068 -12.536 172 171 171
10.642375 10.754796 -12.735 184 183 183
10.642375 10.754796 -12.94 188 187 187
10.642375 10.754796 -13.145 188 188 188
10.890116 11.005523 -13.344 192 196 199
11.138156 11.255152 -13.542 200 203 209
11.138156 11.255152 -13.748 196 197 201
11.138156 11.255152 -13.953 185 185 187
11.138156 11.255152 -14.158 183 182 182
11.632839 11.755207 -14.348 190 190 190
11.632839 11.755207 -14.553 194 195 197
11.632839 11.755207 -14.758 199 200 202
11.632839 11.755207 -14.963 201 202 204
13.109606 13.24748 -15.122 208 209 209
12.125627 12.253564 -15.358 206 207 207
12.125627 12.253564 -15.562 206 207 207
12.125627 12.253564 -15.767 206 207 207
12.372569 12.5028925 -15.964 206 207 207
12.618714 12.750822 -16.16 208 209 209
12.618714 12.750822 -16.365 208 208 208
12.618714 12.750822 -16.569 206 207 207
12.864559 12.99985 -16.766 199 200 200
13.109606 13.24748 -16.961 187 191 190
13.109606 13.24748 -17.166 190 190 190
13.109606 13.24748 -17.37 179 178 178
13.35575 13.49541 -17.565 181 181 183
13.600497 13.744138 -17.761 175 175 177
13.600497 13.744138 -17.965 168 167 167
13.600497 13.744138 -18.169 173 172 172
13.845844 13.990669 -18.364 179 180 182
13.845844 13.990669 -18.568 201 201 201
14.089793 14.237998 -18.762 208 207 207
14.089793 14.237998 -18.966 208 207 209
14.089793 14.237998 -19.17 202 202 204
14.089793 14.237998 -19.374 200 200 202
14.333741 14.485328 -19.568 196 195 195
14.577991 14.731558 -19.762 197 196 196
14.577991 14.731558 -19.966 197 197 197
14.577991 14.731558 -20.17 201 201 199
14.577991 14.731558 -20.373 204 204 204
14.82224 14.977789 -20.567 208 209 209
14.82224 14.977789 -20.77 214 214 214
14.82224 14.977789 -20.974 216 216 218
15.30964 15.469951 -21.156 218 218 220
15.30964 15.469951 -21.36 222 222 224
15.065391 15.22372 -21.574 224 224 224
15.30964 15.469951 -21.766 224 224 224
15.30964 15.469951 -21.97 225 225 227
15.551692 15.715581 -22.162 227 226 228
15.551692 15.715581 -22.365 226 225 227
15.794844 15.961512 -22.557 224 224 224
16.037197 16.206043 -22.749 225 224 224
15.794844 15.961512 -22.964 227 223 224
15.794844 15.961512 -23.167 225 224 224
16.037197 16.206043 -23.358 224 223 223
16.280348 16.451973 -23.55 222 221 221
16.037197 16.206043 -23.765 223 222 222
16.521603 16.696205 -23.944 222 222 222
16.280348 16.451973 -24.159 222 222 224
16.521603 16.696205 -24.349 222 222 224
16.521603 16.696205 -24.552 221 221 223
16.521603 16.696205 -24.755 221 222 224
16.763956 16.940737 -24.946 223 222 224
16.763956 16.940737 -25.148 223 222 224
17.00521 17.184969 -25.338 225 224 224
17.00521 17.184969 -25.541 224 223 225
17.00521 17.184969 -25.744 224 223 225
17.00521 17.184969 -25.946 226 225 225
17.246767 17.428102 -26.136 225 226 226
18.450647 18.645063 -26.272 223 223 223
17.246767 17.428102 -26.541 228 228 228
17.246767 17.428102 -26.744 227 228 228
17.246767 17.428102 -26.946 228 229 229
17.246767 17.428102 -27.149 230 231 231
17.488022 17.672333 -27.338 228 228 228
17.488022 17.672333 -27.54 224 224 226
17.488022 17.672333 -27.743 223 223 225
17.488022 17.672333 -27.945 223 223 225
17.488022 17.672333 -28.148 218 217 217
17.488022 17.672333 -28.35 209 208 206
17.246767 17.428102 -28.567 183 182 182
17.488022 17.672333 -28.755 203 202 206
17.246767 17.428102 -28.972 185 185 189
17.246767 17.428102 -29.175 195 195 195
17.246767 17.428102 -29.378 197 196 196
17.00521 17.184969 -29.595 193 192 190
17.00521 17.184969 -29.798 190 185 180
18.210192 18.402231 -29.925 208 202 202
18.210192 18.402231 -30.127 203 197 197
17.00521 17.184969 -30.406 193 192 192
17.00521 17.184969 -30.609 202 201 201
17.246767 17.428102 -30.796 189 189 189
17.246767 17.428102 -30.999 188 188 188
17.246767 17.428102 -31.201 200 196 197
17.729576 17.915466 -31.372 205 201 202
17.729576 17.915466 -31.575 213 207 207
17.729576 17.915466 -31.777 215 209 209
17.729576 17.915466 -31.979 219 213 213
17.969734 18.159397 -32.166 223 217 217
18.210192 18.402231 -32.352 225 224 224
18.210192 18.402231 -32.554 230 229 229
18.450647 18.645063 -32.74 234 230 231
18.210192 18.402231 -32.958 232 231 231
18.450647 18.645063 -33.144 233 232 232
18.450647 18.645063 -33.346 233 232 230
18.690308 18.886497 -33.531 234 233 231
18.690308 18.886497 -33.733 233 232 230
18.929667 19.12903 -33.918 233 232 232
18.929667 19.12903 -34.12 232 231 231
18.690308 18.886497 -34.339 232 231 231
18.690308 18.886497 -34.541 231 230 230
18.929667 19.12903 -34.726 232 231 229
18.929667 19.12903 -34.928 232 231 229
19.169025 19.371563 -35.112 232 231 229
19.408686 19.612997 -35.296 232 231 231
19.169025 19.371563 -35.515 232 231 229
19.169025 19.371563 -35.717 232 231 229
19.408686 19.612997 -35.901 232 231 229
19.647247 19.854132 -36.085 232 231 229
19.647247 19.854132 -36.286 230 229 227
19.886906 20.095566 -36.47 230 229 227
19.647247 19.854132 -36.689 225 226 226
19.647247 19.854132 -36.891 230 231 231
19.647247 19.854132 -37.093 233 233 233
19.647247 19.854132 -37.294 236 236 236
20.125467 20.3367 -37.458 233 232 230
20.125467 20.3367 -37.66 233 232 230
20.125467 20.3367 -37.861 232 231 231
20.125467 20.3367 -38.062 229 228 228
20.601492 20.818668 -38.225 225 224 224
20.839256 21.058403 -38.407 225 224 224
20.839256 21.058403 -38.609 223 223 223
20.601492 20.818668 -38.829 228 228 228
20.839256 21.058403 -39.011 229 229 229
20.839256 21.058403 -39.212 231 231 231
20.839256 21.058403 -39.413 238 237 237
21.07702 21.298138 -39.594 229 230 230
21.07702 21.298138 -39.795 206 206 206
21.313385 21.538671 -39.976 193 192 192
21.313385 21.538671 -40.177 199 199 199
21.313385 21.538671 -40.378 216 215 215
21.313385 21.538671 -40.579 225 224 224
21.07702 21.298138 -40.8 229 225 226
21.313385 21.538671 -40.981 212 211 211
21.07702 21.298138 -41.202 202 201 201
21.07702 21.298138 -41.403 205 199 197
21.313385 21.538671 -41.583 198 197 197
21.07702 21.298138 -41.805 209 208 208
21.07702 21.298138 -42.006 219 218 220
21.07702 21.298138 -42.207 216 216 216
21.07702 21.298138 -42.408 215 214 214
21.07702 21.298138 -42.609 212 211 209
21.07702 21.298138 -42.81 209 208 204
21.07702 21.298138 -43.011 205 200 195
21.07702 21.298138 -43.212 198 193 188
21.07702 21.298138 -43.413 195 187 181
21.313385 21.538671 -43.592 192 186 184
21.313385 21.538671 -43.793 185 181 180
21.313385 21.538671 -43.994 184 183 183
21.313385 21.538671 -44.195 214 213 213
21.313385 21.538671 -44.396 221 221 221
21.313385 21.538671 -44.597 217 216 216
21.313385 21.538671 -44.797 218 217 217
21.07702 21.298138 -45.021 222 221 221
21.07702 21.298138 -45.222 224 223 223
21.313385 21.538671 -45.4 225 224 224
21.07702 21.298138 -45.624 227 226 226
21.313385 21.538671 -45.802 227 226 226
21.55115 21.778406 -45.98 229 228 228
21.55115 21.778406 -46.181 231 230 230
21.55115 21.778406 -46.381 233 232 232
21.55115 21.778406 -46.582 234 233 231
21.55115 21.778406 -46.783 234 233 233
21.788115 22.016743 -46.96 233 232 232
21.788115 22.016743 -47.161 233 232 232
21.788115 22.016743 -47.362 233 232 232
21.788115 22.016743 -47.562 233 232 232
21.788115 22.016743 -47.763 231 231 231
22.02478 22.256178 -47.94 231 231 231
1.0257336 1.0522702 -5.865 187 188 188
1.5365634 1.5772393 -6.277 180 181 181
3.5703015 3.6649501 -6.46 201 200 200
2.809943 2.8838882 -6.678 187 186 186
4.3290863 4.4432025 -6.866 174 173 171
4.3290863 4.4432025 -7.074 186 187 189
4.075793 4.183682 -7.286 192 192 192
4.3290863 4.4432025 -7.49 200 201 205
4.581284 4.702414 -7.694 195 195 197
4.832386 4.961316 -7.898 192 192 192
5.336304 5.4772387 -8.097 186 187 189
5.587406 5.7361407 -8.301 174 174 174
7.338658 7.5336227 -8.478 188 188 188
6.089442 6.250349 -8.707 187 186 186
6.590381 6.7642484 -8.905 189 188 190
6.8396006 7.021437 -9.107 189 190 192
7.0891294 7.2775297 -9.309 191 192 194
7.0891294 7.2775297 -9.516 191 192 194
7.5881867 7.7897153 -9.713 188 189 191
7.5881867 7.7897153 -9.92 187 188 190
8.0853615 8.300187 -10.116 186 186 188
8.0853615 8.300187 -10.323 187 186 186
8.334103 8.554875 -10.524 186 186 186
8.581749 8.809254 -10.724 187 186 186
8.830491 9.063942 -10.925 184 180 181
9.078137 9.318321 -11.125 182 181 183
9.324687 9.572391 -11.326 184 183 183
9.572642 9.825674 -11.526 189 189 189
9.572642 9.825674 -11.732 189 190 190
9.572642 9.825674 -11.937 189 189 191
9.819193 10.079744 -12.137 188 188 186
10.066052 10.332718 -12.336 181 181 181
10.066052 10.332718 -12.542 175 175 173
10.311816 10.585383 -12.741 166 165 165
10.55758 10.838048 -12.94 179 179 179
10.55758 10.838048 -13.145 175 175 175
10.803343 11.0907135 -13.344 192 192 194
11.049416 11.342282 -13.542 200 200 202
11.049416 11.342282 -13.748 201 200 200
11.049416 11.342282 -13.953 190 189 189
11.295179 11.594948 -14.151 189 188 186
11.540156 11.846208 -14.553 188 187 187
11.540156 11.846208 -14.758 192 192 192
11.540156 11.846208 -14.963 197 196 196
13.249347 13.599889 -15.114 204 204 206
13.249347 13.599889 -15.319 204 204 206
12.029015 12.348419 -15.562 207 207 207
12.029015 12.348419 -15.767 206 207 209
12.273992 12.59968 -15.964 206 207 209
12.518182 12.849535 -16.16 206 207 207
12.518182 12.849535 -16.365 206 207 207
12.518182 12.849535 -16.569 205 206 206
12.518182 12.849535 -16.774 205 206 206
12.762062 13.100487 -16.97 195 195 195
13.0051565 13.350033 -17.166 193 194 198
13.0051565 13.350033 -17.37 181 182 186
13.0051565 13.350033 -17.574 175 174 174
13.492132 13.850531 -17.761 175 174 174
13.492132 13.850531 -17.965 163 162 162
13.492132 13.850531 -18.169 177 176 176
13.492132 13.850531 -18.373 209 208 208
13.735536 14.098982 -18.568 201 200 200
15.187668 15.589714 -18.715 202 201 201
13.977534 14.348219 -18.966 204 203 203
13.977534 14.348219 -19.17 201 202 202
13.977534 14.348219 -19.374 199 199 199
14.219533 14.597456 -19.568 194 194 194
14.461841 14.845598 -19.762 193 193 193
14.461841 14.845598 -19.966 197 196 196
14.461841 14.845598 -20.17 202 201 201
14.461841 14.845598 -20.373 205 204 204
14.704148 15.0937395 -20.567 209 208 208
14.704148 15.0937395 -20.77 214 213 213
14.704148 15.0937395 -20.974 219 215 216
15.187668 15.589714 -21.156 219 219 219
14.94536 15.341572 -21.37 222 222 222
14.94536 15.341572 -21.574 223 223 223
15.187668 15.589714 -21.766 223 224 224
15.187668 15.589714 -21.97 224 224 224
15.427784 15.837237 -22.162 223 224 224
15.427784 15.837237 -22.365 225 225 225
15.427784 15.837237 -22.569 223 224 226
15.668996 16.08507 -22.76 224 224 226
15.668996 16.08507 -22.964 224 224 226
15.668996 16.08507 -23.167 223 223 225
15.909421 16.331497 -23.358 223 223 225
15.909421 16.331497 -23.561 222 222 222
16.150633 16.57933 -23.753 222 222 222
16.150633 16.57933 -23.956 221 222 222
16.150633 16.57933 -24.159 221 222 222
16.389963 16.825449 -24.349 221 222 224
16.389963 16.825449 -24.552 221 221 223
16.630388 17.071877 -24.743 222 222 224
16.630388 17.071877 -24.946 222 222 224
16.869717 17.317995 -25.338 222 222 222
16.869717 17.317995 -25.541 222 223 225
16.869717 17.317995 -25.744 224 224 224
16.869717 17.317995 -25.946 224 224 224
16.869717 17.317995 -26.149 222 223 223
17.109356 17.563019 -26.339 222 223 223
18.303642 18.789398 -26.475 218 217 219
18.303642 18.789398 -26.677 216 216 216
17.109356 17.563019 -26.946 231 230 230
17.348684 17.809137 -27.135 231 230 230
17.348684 17.809137 -27.338 226 225 225
17.348684 17.809137 -27.54 225 224 224
17.348684 17.809137 -27.743 224 224 224
17.348684 17.809137 -27.945 220 219 217
17.109356 17.563019 -28.162 195 191 188
17.109356 17.563019 -28.365 181 180 178
17.348684 17.809137 -28.553 188 187 183
17.109356 17.563019 -28.77 166 165 163
17.109356 17.563019 -28.972 181 180 178
16.869717 17.317995 -29.19 187 187 187
16.630388 17.071877 -29.407 195 195 195
16.630388 17.071877 -29.61 205 204 204
16.630388 17.071877 -29.813 204 198 198
16.630388 17.071877 -30.016 200 194 194
16.630388 17.071877 -30.219 200 199 199
16.630388 17.071877 -30.421 201 202 204
16.630388 17.071877 -30.624 200 201 203
17.109356 17.563019 -30.796 197 197 199
17.109356 17.563019 -30.999 201 201 203
17.109356 17.563019 -31.201 209 205 204
17.588324 18.054161 -31.372 208 202 200
17.588324 18.054161 -31.575 213 207 205
17.826557 18.29997 -31.761 214 208 206
17.588324 18.054161 -31.979 217 211 211
18.0651 18.544685 -32.149 220 214 214
18.0651 18.544685 -32.352 222 218 219
18.303642 18.789398 -32.537 228 224 225
18.303642 18.789398 -32.74 231 227 228
18.303642 18.789398 -32.942 233 229 230
18.303642 18.789398 -33.144 232 231 231
18.303642 18.789398 -33.346 233 232 232
18.303642 18.789398 -33.548 232 231 231
18.541399 19.032707 -33.733 232 231 231
18.541399 19.032707 -33.935 232 231 231
18.541399 19.032707 -34.137 231 230 228
18.541399 19.032707 -34.339 230 229 229
18.541399 19.032707 -34.541 230 229 227
18.778845 19.277113 -34.726 230 229 229
18.778845 19.277113 -34.928 230 229 229
19.016293 19.521517 -35.112 231 230 230
19.016293 19.521517 -35.314 231 231 231
19.25405 19.764826 -35.498 231 231 231
19.016293 19.521517 -35.717 231 230 230
19.25405 19.764826 -35.901 231 230 230
19.25405 19.764826 -36.103 229 228 228
19.49071 20.007828 -36.286 229 228 228
19.728464 20.251137 -36.47 226 225 225
19.728464 20.251137 -36.671 224 223 223
19.49071 20.007828 -36.891 231 231 231
19.49071 20.007828 -37.093 232 233 233
19.728464 20.251137 -37.275 235 235 235
19.965124 20.494137 -37.458 232 232 232
19.965124 20.494137 -37.66 232 231 231
19.965124 20.494137 -37.861 231 230 230
19.965124 20.494137 -38.062 229 228 228
20.43735 20.979828 -38.427 225 224 224
20.673223 21.221422 -38.609 224 223 223
20.673223 21.221422 -38.81 225 225 225
20.673223 21.221422 -39.011 230 229 229
20.673223 21.221422 -39.212 238 237 237
20.673223 21.221422 -39.413 237 237 237
20.909096 21.463018 -39.594 229 229 229
20.909096 21.463018 -39.795 207 207 207
20.909096 21.463018 -39.996 201 201 201
20.909096 21.463018 -40.197 223 222 222
20.909096 21.463018 -40.398 234 233 233
20.909096 21.463018 -40.599 231 231 231
20.909096 21.463018 -40.8 226 226 226
21.143564 21.7054 -40.981 213 213 213
21.143564 21.7054 -41.182 203 204 204
21.143564 21.7054 -41.382 199 199 199
21.143564 21.7054 -41.583 196 195 195
20.909096 21.463018 -41.805 216 216 216
20.909096 21.463018 -42.006 222 222 222
20.909096 21.463018 -42.207 216 216 216
20.909096 21.463018 -42.408 214 214 212
20.909096 21.463018 -42.609 211 210 208
20.909096 21.463018 -42.81 207 206 202
20.909096 21.463018 -43.011 201 201 194
20.909096 21.463018 -43.212 195 191 188
20.909096 21.463018 -43.413 190 187 181
20.909096 21.463018 -43.614 183 182 180
20.909096 21.463018 -43.815 183 179 178
21.143564 21.7054 -43.994 194 194 194
21.143564 21.7054 -44.195 221 221 221
21.143564 21.7054 -44.396 216 216 216
21.143564 21.7054 -44.597 217 216 216
21.143564 21.7054 -44.797 219 218 218
20.909096 21.463018 -45.021 223 222 222
21.143564 21.7054 -45.199 224 223 223
21.143564 21.7054 -45.4 226 225 225
22.552063 23.14952 -45.465 218 217 217
21.379438 21.946995 -45.779 229 228 228
21.379438 21.946995 -45.98 230 229 229
21.379438 21.946995 -46.181 231 230 230
21.379438 21.946995 -46.381 233 232 232
21.379438 21.946995 -46.582 233 232 232
21.379438 21.946995 -46.783 233 233 233
21.614525 22.187185 -46.96 232 232 232
21.614525 22.187185 -47.161 231 231 231
21.614525 22.187185 -47.362 231 231 231
21.614525 22.187185 -47.562 230 231 231
21.849302 22.428473 -47.739 230 231 231
1.0174376 1.0602937 -5.865 189 189 189
1.5241286 1.5892587 -6.277 181 180 180
2.2831602 2.380043 -6.476 176 175 175
2.7872066 2.9058683 -6.678 188 188 188
4.2940564 4.4770656 -6.866 179 173 175
4.042809 4.215564 -7.077 187 181 179
4.042809 4.215564 -7.286 190 190 192
4.042809 4.215564 -7.494 202 201 201
4.5442104 4.73825 -7.694 197 196 196
4.7932715 4.9991164 -7.898 193 192 192
5.293122 5.5189805 -8.097 187 187 187
5.542183 5.7798467 -8.301 174 173 173
6.040164 6.297982 -8.499 189 185 184
6.040164 6.297982 -8.707 190 184 184
6.2884493 6.557438 -8.909 191 187 188
6.537052 6.8158 -9.112 192 188 189
6.784244 7.0749383 -9.314 191 190 192
7.0317535 7.3329825 -9.516 193 192 194
7.2792635 7.5910273 -9.718 190 190 192
7.526773 7.849072 -9.92 188 188 190
7.7735066 8.105706 -10.121 186 187 191
8.019923 8.363433 -10.323 187 186 186
8.266657 8.620067 -10.524 187 186 188
8.512298 8.876383 -10.724 187 186 186
8.759031 9.133017 -10.925 180 180 182
9.004672 9.389333 -11.125 181 182 182
9.004672 9.389333 -11.332 180 181 183
9.495177 9.900554 -11.526 187 187 187
9.495177 9.900554 -11.732 188 188 188
9.495177 9.900554 -11.937 190 190 190
9.739725 10.156552 -12.137 189 189 189
9.98459 10.411457 -12.336 186 185 185
9.98459 10.411457 -12.542 174 173 173
10.228361 10.666044 -12.741 177 178 180
10.472133 10.920632 -12.94 177 178 178
10.472133 10.920632 -13.145 178 178 178
10.715904 11.17522 -13.344 187 188 188
10.715904 11.17522 -13.549 188 189 189
10.959994 11.428714 -13.748 200 200 200
10.959994 11.428714 -13.953 194 193 193
10.959994 11.428714 -14.158 191 190 192
11.203766 11.683301 -14.356 189 188 188
11.446761 11.936478 -14.553 190 189 191
11.446761 11.936478 -14.758 196 195 199
11.446761 11.936478 -14.963 201 200 204
11.689757 12.189654 -15.161 204 203 205
13.142126 13.703528 -15.319 203 203 205
11.93166 12.442513 -15.562 205 204 204
11.93166 12.442513 -15.767 206 206 208
12.174656 12.69569 -15.964 206 207 209
12.416876 12.947455 -16.16 208 208 208
12.416876 12.947455 -16.365 208 208 210
12.416876 12.947455 -16.569 209 209 209
12.416876 12.947455 -16.774 211 210 210
12.658779 13.2003145 -16.97 209 209 209
12.899906 13.451762 -17.166 193 193 195
12.899906 13.451762 -17.37 185 185 185
12.899906 13.451762 -17.574 185 179 179
13.142126 13.703528 -17.77 173 172 172
13.382936 13.956069 -17.965 177 176 176
13.382936 13.956069 -18.169 198 194 195
13.382936 13.956069 -18.373 209 208 208
13.62438 14.206424 -18.568 200 200 200
13.62438 14.206424 -18.772 201 200 200
13.864414 14.457555 -18.966 203 202 202
13.864414 14.457555 -19.17 203 202 202
14.104447 14.708685 -19.364 200 200 200
14.104447 14.708685 -19.568 197 196 196
14.344799 14.958722 -19.762 197 196 196
14.344799 14.958722 -19.966 197 196 196
14.344799 14.958722 -20.17 201 200 200
14.344799 14.958722 -20.373 201 200 200
14.344799 14.958722 -20.577 207 207 207
14.58515 15.208759 -20.77 210 210 210
14.58515 15.208759 -20.974 215 215 215
14.824409 15.458478 -21.167 217 217 219
15.064759 15.708515 -21.36 219 219 221
15.064759 15.708515 -21.563 222 222 224
15.064759 15.708515 -21.766 224 224 224
15.064759 15.708515 -21.97 225 224 224
15.064759 15.708515 -22.173 225 224 224
15.302924 15.957917 -22.365 226 225 225
15.542182 16.207636 -22.557 226 225 225
15.542182 16.207636 -22.76 224 224 224
15.542182 16.207636 -22.964 225 224 224
15.542182 16.207636 -23.167 224 223 223
15.542182 16.207636 -23.37 222 221 223
15.780664 16.455946 -23.561 223 222 222
15.780664 16.455946 -23.765 222 222 224
16.019922 16.705666 -23.956 222 222 222
16.019922 16.705666 -24.159 223 223 225
16.019922 16.705666 -24.362 223 223 223
16.25731 16.953655 -24.552 221 221 223
16.25731 16.953655 -24.755 219 219 219
16.495794 17.201963 -24.946 219 219 219
16.495794 17.201963 -25.148 218 219 219
16.733183 17.449955 -25.338 221 222 224
16.733183 17.449955 -25.541 221 222 224
16.733183 17.449955 -25.744 222 223 223
16.733183 17.449955 -25.946 223 224 226
16.97089 17.696852 -26.136 224 224 226
18.155508 18.932573 -26.272 224 224 226
18.155508 18.932573 -26.475 221 221 223
17.208279 17.944843 -26.73 228 228 228
16.97089 17.696852 -26.946 230 230 230
16.97089 17.696852 -27.149 230 230 230
16.97089 17.696852 -27.352 230 229 229
17.208279 17.944843 -27.54 225 225 225
17.208279 17.944843 -27.743 215 214 214
17.208279 17.944843 -27.945 205 204 202
16.97089 17.696852 -28.162 195 194 192
16.97089 17.696852 -28.365 172 172 165
16.97089 17.696852 -28.567 164 156 150
16.733183 17.449955 -28.784 155 154 152
16.733183 17.449955 -28.987 163 162 162
16.733183 17.449955 -29.19 179 175 176
16.495794 17.201963 -29.407 185 185 187
16.495794 17.201963 -29.61 197 196 196
16.25731 16.953655 -29.828 190 189 189
16.495794 17.201963 -30.016 197 197 197
16.495794 17.201963 -30.219 200 199 199
16.495794 17.201963 -30.421 201 200 200
16.733183 17.449955 -30.609 202 201 201
16.97089 17.696852 -30.796 202 202 202
16.97089 17.696852 -30.999 207 206 204
16.97089 17.696852 -31.201 209 208 208
17.445986 18.19174 -31.372 211 205 203
17.445986 18.19174 -31.575 212 208 205
17.445986 18.19174 -31.777 214 208 206
17.682281 18.439415 -31.963 214 210 209
17.682281 18.439415 -32.166 218 214 211
17.918894 18.685993 -32.352 219 218 218
17.918894 18.685993 -32.554 224 223 223
18.155508 18.932573 -32.74 227 226 226
18.155508 18.932573 -32.942 231 230 230
18.155508 18.932573 -33.144 232 231 231
18.155508 18.932573 -33.346 232 231 231
18.155508 18.932573 -33.548 231 230 230
18.391346 19.177742 -33.733 231 230 228
18.391346 19.177742 -33.935 232 228 227
18.626865 19.424006 -34.12 232 228 227
18.391346 19.177742 -34.339 231 227 226
18.626865 19.424006 -34.524 229 225 224
18.626865 19.424006 -34.726 229 225 224
18.626865 19.424006 -34.928 229 223 225
18.862387 19.670267 -35.112 227 226 224
18.862387 19.670267 -35.314 226 225 225
18.862387 19.670267 -35.515 229 228 226
18.862387 19.670267 -35.717 230 229 229
18.862387 19.670267 -35.919 227 226 226
19.098223 19.915436 -36.103 229 225 226
19.332968 20.160288 -36.286 220 219 219
19.332968 20.160288 -36.488 226 222 223
19.332968 20.160288 -36.689 232 231 231
19.332968 20.160288 -36.891 236 235 235
19.332968 20.160288 -37.093 238 237 237
19.332968 20.160288 -37.294 237 238 240
19.568806 20.405457 -37.477 233 233 233
19.80355 20.650309 -37.66 231 231 231
20.0372 20.894842 -37.842 230 229 229
19.80355 20.650309 -38.062 225 224 224
20.0372 20.894842 -38.245 222 221 221
20.271946 21.139694 -38.427 222 221 221
20.505915 21.383133 -38.609 227 226 226
20.505915 21.383133 -38.81 230 230 230
20.271946 21.139694 -39.03 233 233 233
20.271946 21.139694 -39.231 235 235 235
20.505915 21.383133 -39.413 235 236 236
20.739883 21.626574 -39.594 229 229 229
20.739883 21.626574 -39.795 220 219 217
20.739883 21.626574 -39.996 224 224 224
20.739883 21.626574 -40.197 237 237 237
20.739883 21.626574 -40.398 238 238 240
20.739883 21.626574 -40.599 236 236 236
20.739883 21.626574 -40.8 226 226 228
20.739883 21.626574 -41.001 219 218 218
20.739883 21.626574 -41.202 215 215 215
20.739883 21.626574 -41.403 217 213 212
20.739883 21.626574 -41.604 217 216 216
20.739883 21.626574 -41.805 217 217 217
20.739883 21.626574 -42.006 221 221 221
20.739883 21.626574 -42.207 217 216 214
20.739883 21.626574 -42.408 211 210 210
20.739883 21.626574 -42.609 214 211 205
20.739883 21.626574 -42.81 212 209 201
20.739883 21.626574 -43.011 199 194 187
20.739883 21.626574 -43.212 191 186 179
20.505915 21.383133 -43.435 176 167 157
20.739883 21.626574 -43.614 167 158 157
20.505915 21.383133 -43.837 191 182 183
20.505915 21.383133 -44.038 219 218 218
20.739883 21.626574 -44.217 229 229 229
20.97244 21.87079 -44.396 216 215 215
20.97244 21.87079 -44.597 206 202 203
20.97244 21.87079 -44.797 218 214 215
20.739883 21.626574 -45.021 223 222 222
20.739883 21.626574 -45.222 225 224 224
20.97244 21.87079 -45.4 227 226 226
20.97244 21.87079 -45.601 230 229 229
22.369553 23.32593 -45.665 224 223 223
21.20641 22.114231 -45.98 231 230 230
21.20641 22.114231 -46.181 232 231 231
20.97244 21.87079 -46.405 233 232 232
21.20641 22.114231 -46.582 234 233 233
21.20641 22.114231 -46.783 233 232 232
21.20641 22.114231 -46.984 233 232 232
21.20641 22.114231 -47.185 233 232 232
21.20641 22.114231 -47.385 232 231 231
21.20641 22.114231 -47.586 231 230 230
21.672478 22.599382 -47.739 229 228 228
1.5115997 1.60118 -5.859 190 190 192
2.2643971 2.3979013 -6.059 188 188 190
1.5115997 1.60118 -6.277 183 182 182
3.7614803 3.9840448 -6.456 187 187 189
2.5143478 2.6627853 -6.682 187 187 187
4.2587614 4.5106525 -6.866 180 179 177
4.0095754 4.2471857 -7.077 186 186 186
4.0095754 4.2471857 -7.286 194 193 193
4.2587614 4.5106525 -7.49 200 200 202
4.5068564 4.773793 -7.694 201 201 201
4.753861 5.036608 -7.898 193 193 193
5.2496133 5.560382 -8.097 187 186 186
5.4966173 5.8231964 -8.301 185 181 182
5.7428575 6.084594 -8.504 186 182 183
5.9905143 6.345227 -8.707 184 183 183
6.236754 6.6066246 -8.909 189 188 188
6.4833198 6.8669314 -9.112 190 189 189
6.973944 7.3879833 -9.309 191 192 192
6.973944 7.3879833 -9.516 192 192 194
7.464895 7.9079447 -9.713 193 193 195
7.464895 7.9079447 -9.92 192 192 192
7.7096057 8.166508 -10.121 188 188 188
7.95399 8.426163 -10.323 187 187 189
8.198701 8.684726 -10.524 188 187 187
8.442321 8.942964 -10.724 186 186 186
8.442321 8.942964 -10.931 187 187 189
8.930652 9.4597645 -11.125 182 182 186
8.930652 9.4597645 -11.332 186 186 190
9.173181 9.717676 -11.532 184 185 189
9.417127 9.974822 -11.732 188 189 193
9.417127 9.974822 -11.937 194 194 196
9.659656 10.232734 -12.137 200 200 200
9.902512 10.489554 -12.336 182 181 181
9.902512 10.489554 -12.542 176 176 176
10.144276 10.746048 -12.741 174 174 176
10.386041 11.0025425 -12.94 170 174 175
10.386041 11.0025425 -13.145 171 175 176
10.386041 11.0025425 -13.351 173 177 178
10.627805 11.259037 -13.549 194 195 195
10.869896 11.51444 -13.748 201 201 203
10.869896 11.51444 -13.953 187 186 186
10.869896 11.51444 -14.158 187 186 186
11.11166 11.770934 -14.356 182 181 181
11.35266 12.026011 -14.553 188 189 189
11.35266 12.026011 -14.758 194 195 197
11.35266 12.026011 -14.963 201 201 201
11.59366 12.281089 -15.161 204 203 203
11.83357 12.53584 -15.358 204 204 206
11.83357 12.53584 -15.562 206 206 208
11.83357 12.53584 -15.767 207 207 209
11.83357 12.53584 -15.972 207 208 210
13.512384 14.31299 -16.119 205 206 208
12.314805 13.044578 -16.365 208 209 211
12.314805 13.044578 -16.569 208 209 209
12.314805 13.044578 -16.774 208 209 209
12.314805 13.044578 -16.979 206 210 211
12.554714 13.299328 -17.174 205 206 206
12.7938595 13.552662 -17.37 181 180 180
12.7938595 13.552662 -17.574 185 186 188
13.034095 13.806322 -17.77 178 178 180
13.272913 14.060747 -17.965 180 180 182
13.272913 14.060747 -18.169 195 195 197
13.272913 14.060747 -18.373 206 206 206
13.512384 14.31299 -18.568 208 208 208
13.750438 14.565998 -18.762 200 201 201
13.750438 14.565998 -18.966 201 202 202
13.750438 14.565998 -19.17 201 202 202
13.750438 14.565998 -19.374 201 201 203
13.988492 14.819006 -19.568 200 200 200
13.988492 14.819006 -19.772 199 199 199
14.226872 15.070923 -19.966 196 195 195
14.226872 15.070923 -20.17 200 200 200
14.226872 15.070923 -20.373 203 202 202
14.226872 15.070923 -20.577 208 207 207
14.226872 15.070923 -20.781 214 210 211
14.465252 15.322841 -20.974 216 215 215
14.702541 15.574431 -21.167 218 217 217
14.702541 15.574431 -21.37 220 219 219
14.702541 15.574431 -21.574 223 222 222
14.940922 15.826348 -21.766 224 223 225
14.940922 15.826348 -21.97 225 224 224
14.940922 15.826348 -22.173 225 224 226
15.17712 16.077612 -22.365 225 225 225
15.41441 16.329205 -22.557 224 224 224
15.41441 16.329205 -22.76 224 224 224
15.650934 16.579378 -22.952 225 224 224
15.41441 16.329205 -23.167 224 223 223
15.41441 16.329205 -23.37 223 222 222
15.41441 16.329205 -23.573 223 222 222
15.650934 16.579378 -23.765 222 222 222
15.888224 16.830969 -23.956 221 221 223
15.888224 16.830969 -24.159 221 222 224
15.888224 16.830969 -24.362 222 223 225
16.123657 17.080816 -24.552 221 222 226
16.123657 17.080816 -24.755 219 219 221
16.123657 17.080816 -24.958 213 213 213
16.360182 17.33099 -25.148 217 217 217
16.595617 17.580837 -25.541 223 222 222
16.595617 17.580837 -25.744 224 223 223
16.595617 17.580837 -25.946 224 224 224
16.595617 17.580837 -26.149 224 224 224
16.831377 17.829594 -26.339 225 225 225
16.831377 17.829594 -26.541 225 226 228
16.831377 17.829594 -26.744 227 228 230
16.831377 17.829594 -26.946 229 230 232
16.831377 17.829594 -27.149 229 230 232
17.06681 18.079441 -27.338 230 231 231
17.06681 18.079441 -27.54 221 221 221
17.06681 18.079441 -27.743 207 207 207
16.831377 17.829594 -27.959 209 208 208
16.831377 17.829594 -28.162 196 195 195
16.831377 17.829594 -28.365 181 181 181
16.831377 17.829594 -28.567 160 159 159
16.595617 17.580837 -28.784 173 173 173
16.595617 17.580837 -28.987 172 168 169
16.360182 17.33099 -29.204 183 177 179
16.360182 17.33099 -29.407 192 186 188
16.360182 17.33099 -29.61 197 196 196
16.595617 17.580837 -29.798 205 201 200
16.360182 17.33099 -30.016 198 197 195
16.360182 17.33099 -30.219 200 196 193
16.360182 17.33099 -30.421 194 193 191
16.360182 17.33099 -30.624 207 203 202
17.06681 18.079441 -30.78 202 201 201
17.06681 18.079441 -30.983 204 203 201
17.06681 18.079441 -31.185 210 204 204
17.30257 18.3282 -31.372 211 205 205
17.536915 18.57772 -31.559 211 205 203
17.536915 18.57772 -31.761 212 206 204
17.30257 18.3282 -31.979 211 205 205
17.536915 18.57772 -32.166 218 212 212
17.771584 18.82615 -32.352 218 217 217
18.006254 19.074581 -32.537 224 223 223
18.006254 19.074581 -32.74 227 226 226
18.006254 19.074581 -32.942 231 230 230
18.006254 19.074581 -33.144 234 233 233
17.771584 18.82615 -33.363 233 232 232
18.006254 19.074581 -33.548 232 231 231
18.240158 19.321596 -33.733 231 230 228
18.240158 19.321596 -33.935 230 229 227
18.473738 19.5697 -34.12 230 229 229
18.240158 19.321596 -34.339 227 226 224
18.473738 19.5697 -34.524 226 225 225
18.473738 19.5697 -34.726 225 224 224
18.473738 19.5697 -34.928 225 224 224
18.473738 19.5697 -35.129 227 226 226
18.707315 19.817804 -35.314 229 228 228
18.707315 19.817804 -35.515 229 228 228
