ply
format ascii 1.0
element vertex 1187
property float x
property float y
property float z
property uchar red
property uchar green
property uchar blue
end_header
-15.1512575 26.241459 -25.713 178 178 178
-15.1512575 26.241459 -25.914 177 178 178
-15.3197565 26.534056 -26.102 178 179 179
-15.487117 26.825512 -26.29 178 179 179
-15.487117 26.825512 -26.49 178 179 179
-15.487117 26.825512 -26.691 180 180 180
-15.3197565 26.534056 -26.905 181 182 182
-15.487117 26.825512 -27.093 187 187 187
-15.487117 26.825512 -27.293 188 188 188
-15.655616 27.11697 -27.48 187 187 187
-15.655616 27.11697 -27.681 189 189 191
-15.655616 27.11697 -27.881 189 189 191
-15.824115 27.40729 -28.068 182 182 186
-15.824115 27.40729 -28.268 182 182 184
-15.991476 27.698748 -28.455 178 179 183
-15.991476 27.698748 -28.655 180 180 182
-15.991476 27.698748 -28.856 187 187 189
-15.991476 27.698748 -29.056 180 180 180
-15.991476 27.698748 -29.256 180 180 180
-15.991476 27.698748 -29.457 184 183 183
-15.991476 27.698748 -29.657 186 185 185
-15.991476 27.698748 -29.857 183 182 182
-15.991476 27.698748 -30.058 178 172 174
-15.991476 27.698748 -30.258 173 167 169
-15.991476 27.698748 -30.459 165 161 162
-15.991476 27.698748 -30.659 162 156 158
-15.991476 27.698748 -30.859 159 150 149
-15.991476 27.698748 -31.06 145 141 142
-15.991476 27.698748 -31.26 143 142 142
-16.158836 27.989067 -31.445 176 175 175
-16.158836 27.989067 -31.645 197 197 197
-16.327335 28.279387 -31.83 202 203 205
-16.327335 28.279387 -32.03 201 201 203
-16.327335 28.279387 -32.23 200 201 205
-16.660917 28.858887 -32.398 198 199 203
-16.660917 28.858887 -32.598 199 199 201
-16.660917 28.858887 -32.798 198 199 203
-16.660917 28.858887 -32.998 199 199 201
-16.660917 28.858887 -33.198 195 196 200
-16.99564 29.43611 -33.365 194 194 198
-16.99564 29.43611 -33.564 192 193 197
-16.99564 29.43611 -33.764 190 190 192
-16.99564 29.43611 -33.964 188 188 190
-16.99564 29.43611 -34.164 186 185 189
-16.99564 29.43611 -34.364 182 182 184
-16.99564 29.43611 -34.563 181 181 181
-17.161861 29.725292 -34.746 181 181 181
-17.328083 30.013334 -34.928 184 185 185
-17.328083 30.013334 -35.128 180 181 183
-17.328083 30.013334 -35.327 175 175 175
-17.328083 30.013334 -35.527 164 164 164
-17.494307 30.301376 -35.709 164 164 164
-17.660528 30.589418 -35.891 167 167 169
-17.660528 30.589418 -36.09 150 150 150
-17.660528 30.589418 -36.289 148 148 150
-17.660528 30.589418 -36.489 152 152 152
-17.82675 30.87746 -36.67 154 155 155
-17.82675 30.87746 -36.869 161 160 160
-17.992971 31.164364 -37.05 159 160 164
-17.992971 31.164364 -37.25 161 161 163
-17.992971 31.164364 -37.449 165 166 170
-17.992971 31.164364 -37.648 174 174 176
-18.158056 31.45127 -37.828 172 171 171
-18.324278 31.738173 -38.208 165 161 162
-18.324278 31.738173 -38.407 167 166 164
-18.324278 31.738173 -38.606 168 168 168
-18.324278 31.738173 -38.805 170 171 171
-18.324278 31.738173 -39.004 172 172 172
-18.324278 31.738173 -39.203 174 174 172
-18.48936 32.025078 -39.382 173 174 174
-18.654446 32.31084 -39.562 176 175 175
-18.654446 32.31084 -39.76 182 181 181
-18.654446 32.31084 -39.959 186 185 185
-18.654446 32.31084 -40.158 182 181 183
-18.654446 32.31084 -40.357 181 181 183
-18.654446 32.31084 -40.556 184 183 185
-18.819529 32.596607 -40.734 181 181 183
-18.819529 32.596607 -40.933 180 180 182
-18.984612 32.882374 -41.111 180 181 181
-18.984612 32.882374 -41.31 180 181 181
-18.984612 32.882374 -41.509 181 181 183
-18.984612 32.882374 -41.707 180 180 182
-18.984612 32.882374 -41.906 179 179 181
-18.984612 32.882374 -42.104 177 176 180
-19.149696 33.168137 -42.282 178 178 182
-19.149696 33.168137 -42.481 177 176 180
-19.97056 34.590134 -42.574 180 181 181
-19.31364 33.452766 -42.856 178 178 182
-19.31364 33.452766 -43.055 176 176 178
-19.31364 33.452766 -43.253 180 180 182
-19.31364 33.452766 -43.452 181 182 182
-19.478724 33.737392 -43.827 180 181 181
-19.478724 33.737392 -44.025 180 181 181
-20.29845 35.157112 -44.115 181 182 182
-19.64267 34.02202 -44.4 180 181 181
-19.64267 34.02202 -44.598 180 181 183
-19.64267 34.02202 -44.796 182 182 182
-19.64267 34.02202 -44.995 185 185 187
-19.64267 34.02202 -45.193 186 187 189
-19.64267 34.02202 -45.391 187 188 188
-19.806614 34.306644 -45.567 189 189 189
-19.97056 34.590134 -45.742 188 188 188
-19.97056 34.590134 -45.94 187 187 187
-19.97056 34.590134 -46.138 187 187 187
-19.97056 34.590134 -46.336 188 188 188
-20.134504 34.873623 -46.512 179 179 179
-20.134504 34.873623 -46.71 172 172 174
-20.29845 35.157112 -46.884 179 178 180
-20.29845 35.157112 -47.082 182 181 183
-20.29845 35.157112 -47.28 183 182 184
-20.29845 35.157112 -47.478 186 185 185
-20.461256 35.440598 -47.652 188 187 187
-20.461256 35.440598 -47.85 190 186 187
-21.276428 36.851208 -47.93 176 175 175
-20.624063 35.72295 -48.222 184 183 185
-20.624063 35.72295 -48.419 181 181 183
-20.624063 35.72295 -48.617 181 181 183
-20.624063 35.72295 -48.815 181 181 183
-20.624063 35.72295 -49.012 180 181 183
-20.624063 35.72295 -49.21 178 179 181
-20.624063 35.72295 -49.408 177 178 178
-20.624063 35.72295 -49.605 175 175 175
-20.624063 35.72295 -49.803 171 171 171
-20.624063 35.72295 -50.0 166 167 167
-20.788008 36.0053 -50.173 161 162 162
-20.788008 36.0053 -50.371 161 162 162
-20.788008 36.0053 -50.568 163 164 164
-20.950815 36.287647 -50.741 168 168 168
-20.950815 36.287647 -50.939 173 173 173
-20.950815 36.287647 -51.136 174 174 174
-20.950815 36.287647 -51.333 176 176 176
-20.950815 36.287647 -51.531 181 181 181
-21.11362 36.57 -51.703 180 180 182
-21.11362 36.57 -51.9 181 181 183
-21.11362 36.57 -52.098 182 182 184
-21.11362 36.57 -52.295 186 186 188
-21.11362 36.57 -52.492 187 187 187
-21.11362 36.57 -52.69 183 183 183
-21.11362 36.57 -52.887 179 179 181
-21.11362 36.57 -53.084 179 179 179
-21.11362 36.57 -53.282 179 178 178
-21.11362 36.57 -53.479 174 174 176
-21.11362 36.57 -53.676 173 172 172
-20.950815 36.287647 -53.9 174 173 173
-20.950815 36.287647 -54.098 170 169 169
-20.950815 36.287647 -54.295 168 167 167
-21.11362 36.57 -54.466 163 162 162
-21.11362 36.57 -54.663 162 161 161
-21.11362 36.57 -54.86 162 161 161
-21.11362 36.57 -55.058 163 162 162
-21.276428 36.851208 -55.228 166 165 165
-21.276428 36.851208 -55.425 173 173 173
-21.276428 36.851208 -55.622 181 181 181
-21.276428 36.851208 -55.82 189 188 188
-21.276428 36.851208 -56.017 191 190 190
-21.276428 36.851208 -56.214 191 190 190
-21.276428 36.851208 -56.411 186 185 185
-21.276428 36.851208 -56.609 182 178 179
-21.276428 36.851208 -56.806 175 171 172
-21.276428 36.851208 -57.003 166 165 165
-21.276428 36.851208 -57.2 153 153 153
-21.276428 36.851208 -57.398 159 159 157
-21.276428 36.851208 -57.595 163 164 164
-21.438095 37.13242 -57.764 169 169 167
-21.438095 37.13242 -57.961 173 173 173
-21.438095 37.13242 -58.158 175 174 174
-21.438095 37.13242 -58.355 179 179 179
-21.438095 37.13242 -58.552 183 183 183
-21.600903 37.41363 -58.721 189 188 186
-21.600903 37.41363 -58.918 187 186 186
-21.600903 37.41363 -59.115 182 181 181
-21.76257 37.694843 -59.283 174 175 175
-21.76257 37.694843 -59.48 174 174 172
-21.76257 37.694843 -59.677 171 171 171
-21.76257 37.694843 -59.874 166 166 164
-21.76257 37.694843 -60.071 163 162 160
-21.76257 37.694843 -60.268 165 164 160
-21.76257 37.694843 -60.465 161 160 156
-21.76257 37.694843 -60.662 160 159 155
-21.76257 37.694843 -60.859 161 160 158
-21.76257 37.694843 -61.055 161 160 160
-21.925377 37.974915 -61.222 159 158 158
-21.925377 37.974915 -61.419 157 157 157
-22.087046 38.25499 -61.586 157 157 157
-22.087046 38.25499 -61.783 155 155 155
-4.597992 7.416646 -5.804 113 114 116
-4.78755 7.721655 -6.009 111 112 116
-4.78755 7.721655 -6.216 110 111 115
-4.9759703 8.026699 -6.42 111 112 116
-5.165493 8.33057 -6.623 113 113 120
-5.3538775 8.634477 -6.827 114 115 119
-5.542262 8.938384 -7.03 114 115 119
-5.9178576 9.5450945 -7.229 111 112 116
-6.1062064 9.847863 -7.432 110 111 115
-6.2934175 10.150668 -7.635 112 112 116
-6.4805923 10.452334 -7.837 111 111 115
-6.6678033 10.755139 -8.039 110 111 115
-6.854978 11.056806 -8.241 108 109 113
-7.0421176 11.357334 -8.443 107 111 114
-7.2281547 11.659037 -8.644 107 111 114
-7.2281547 11.659037 -8.85 108 109 113
-7.2281547 11.659037 -9.056 107 107 114
-7.6012955 12.26013 -9.252 107 107 114
-7.6012955 12.26013 -9.458 107 107 114
-7.787261 12.559556 -9.659 106 107 111
-7.973227 12.858982 -9.859 101 105 108
-8.159192 13.158409 -10.059 102 106 109
-8.34402 13.457871 -10.259 107 111 114
-8.529985 13.7572975 -10.459 111 111 113
-8.714778 14.055622 -10.659 110 111 113
-8.714778 14.055622 -10.864 104 104 108
-8.8995695 14.353946 -11.063 100 101 101
-9.084326 14.651133 -11.262 93 97 98
-9.269117 14.949456 -11.461 99 105 105
-9.452736 15.246678 -11.66 105 105 105
-9.452736 15.246678 -11.865 111 110 110
-9.8210745 15.839949 -12.057 117 113 112
-10.004693 16.13717 -12.255 121 122 126
-10.004693 16.13717 -12.459 143 142 142
-10.189413 16.43322 -12.657 148 148 150
-10.189413 16.43322 -12.861 162 161 161
-10.555405 17.024286 -13.052 171 171 173
-10.738951 17.319231 -13.249 170 171 173
-10.738951 17.319231 -13.453 170 171 173
-10.92136 17.614214 -13.65 166 167 169
-10.92136 17.614214 -13.854 167 168 170
-11.103768 17.909195 -14.05 171 175 178
-11.286141 18.20304 -14.247 173 174 174
-11.468551 18.498022 -14.443 173 173 175
-11.286141 18.20304 -14.654 173 174 174
-11.468551 18.498022 -14.85 172 172 172
-12.377996 19.96276 -15.015 173 173 175
-11.6508875 18.790728 -15.249 175 174 174
-11.6508875 18.790728 -15.452 172 173 175
-11.6508875 18.790728 -15.656 173 173 175
-12.01446 19.377314 -15.843 175 175 179
-12.01446 19.377314 -16.046 174 174 178
-12.01446 19.377314 -16.249 172 172 176
-12.196833 19.671158 -16.444 172 172 174
-12.196833 19.671158 -16.647 169 169 171
-12.377996 19.96276 -16.842 170 169 171
-12.5591955 20.255503 -17.036 173 172 174
-12.740359 20.547106 -17.23 175 174 176
-12.740359 20.547106 -17.433 175 174 176
-12.920384 20.838747 -17.627 174 174 176
-13.101548 21.13035 -17.82 172 172 174
-13.101548 21.13035 -18.023 173 172 172
-13.281573 21.42199 -18.216 170 169 169
-13.281573 21.42199 -18.418 169 168 168
-13.462702 21.712456 -18.612 169 165 166
-13.642692 22.002956 -19.007 169 165 168
-14.540221 23.450985 -19.161 163 162 164
-13.822681 22.293459 -19.401 167 166 168
-13.822681 22.293459 -19.603 167 166 168
-13.822681 22.293459 -19.805 168 167 169
-14.001497 22.582859 -19.997 168 167 167
-14.001497 22.582859 -20.199 168 167 167
-14.181451 22.872223 -20.391 168 167 167
-14.181451 22.872223 -20.593 171 167 168
-14.181451 22.872223 -20.795 171 167 168
-14.361405 23.161587 -20.986 167 166 168
-14.361405 23.161587 -21.188 169 165 168
-14.361405 23.161587 -21.39 169 165 168
-14.540221 23.450985 -21.581 158 158 160
-14.540221 23.450985 -21.783 160 159 161
-14.719002 23.739246 -21.973 156 155 155
-14.719002 23.739246 -22.175 158 158 158
-14.719002 23.739246 -22.376 163 164 166
-14.897818 24.028646 -22.567 168 172 171
-15.076598 24.316908 -22.757 172 173 173
-15.076598 24.316908 -22.958 173 174 174
-15.2553425 24.60403 -23.148 173 174 174
-15.2553425 24.60403 -23.349 172 173 173
-15.434123 24.892294 -23.539 172 173 173
-15.434123 24.892294 -23.74 169 173 172
-15.434123 24.892294 -23.941 170 174 173
-15.61173 25.179453 -24.13 173 174 174
-15.789336 25.466612 -24.319 177 178 180
-15.789336 25.466612 -24.52 178 178 178
-15.789336 25.466612 -24.721 178 178 180
-15.968045 25.752598 -24.91 176 176 178
-15.968045 25.752598 -25.111 174 175 179
-16.145653 26.039757 -25.299 172 172 174
-15.968045 25.752598 -25.512 174 175 177
-17.030022 27.467695 -25.637 176 176 178
-16.322084 26.325813 -25.888 174 174 176
-16.322084 26.325813 -26.089 175 174 174
-16.322084 26.325813 -26.29 174 173 173
-16.499655 26.611835 -26.477 174 173 173
-16.322084 26.325813 -26.691 176 175 175
-16.322084 26.325813 -26.892 179 179 181
-16.499655 26.611835 -27.079 185 185 185
-16.499655 26.611835 -27.28 185 186 190
-16.499655 26.611835 -27.48 188 187 187
-16.67719 26.896719 -27.667 188 188 190
-16.853624 27.182775 -27.854 187 187 189
-16.853624 27.182775 -28.054 187 187 189
-16.853624 27.182775 -28.254 186 186 186
-17.030022 27.467695 -28.441 180 180 180
-17.030022 27.467695 -28.641 181 180 180
-17.030022 27.467695 -28.841 180 180 180
-17.030022 27.467695 -29.041 180 180 180
-17.030022 27.467695 -29.242 179 179 181
-17.030022 27.467695 -29.442 178 178 180
-17.030022 27.467695 -29.642 182 181 181
-16.853624 27.182775 -29.857 180 180 182
-16.853624 27.182775 -30.058 186 185 185
-16.853624 27.182775 -30.258 181 181 181
-16.853624 27.182775 -30.459 186 185 185
-16.853624 27.182775 -30.659 178 178 178
-17.030022 27.467695 -30.844 172 171 171
-17.030022 27.467695 -31.044 170 169 169
-17.207556 27.752579 -31.229 138 137 137
-17.207556 27.752579 -31.429 141 140 142
-17.207556 27.752579 -31.629 162 161 161
-17.559177 28.321316 -31.798 202 203 205
-17.559177 28.321316 -31.998 198 199 201
-17.559177 28.321316 -32.198 200 201 203
-17.559177 28.321316 -32.398 198 199 203
-17.735538 28.605097 -32.582 196 197 201
-17.911863 28.88774 -32.765 195 195 199
-17.911863 28.88774 -32.965 195 195 199
-17.911863 28.88774 -33.165 193 194 198
-17.911863 28.88774 -33.365 192 193 197
-18.087088 29.171556 -33.548 188 189 193
-18.087088 29.171556 -33.748 186 187 191
-18.262276 29.454235 -33.93 183 183 185
-18.262276 29.454235 -34.13 180 181 185
-18.262276 29.454235 -34.33 179 180 182
-18.262276 29.454235 -34.529 173 174 176
-18.437462 29.736916 -34.712 175 175 175
-18.437462 29.736916 -34.911 168 169 169
-18.61265 30.019594 -35.093 171 172 172
-18.61265 30.019594 -35.292 160 160 160
-18.61265 30.019594 -35.492 162 162 162
-18.61265 30.019594 -35.691 181 180 180
-18.787838 30.302273 -35.873 169 169 169
-18.96299 30.583815 -36.054 165 164 164
-18.96299 30.583815 -36.254 172 171 171
-18.96299 30.583815 -36.453 179 178 178
-18.96299 30.583815 -36.652 180 179 179
-19.137003 30.86539 -36.833 165 161 162
-19.312157 31.146933 -37.014 169 168 168
-19.312157 31.146933 -37.213 170 169 169
-19.312157 31.146933 -37.412 175 175 175
-19.312157 31.146933 -37.611 181 181 181
-19.312157 31.146933 -37.81 191 190 190
-19.48617 31.428509 -37.99 181 181 181
-19.48617 31.428509 -38.189 183 182 182
-19.660149 31.708948 -38.369 173 172 172
-19.660149 31.708948 -38.568 170 169 169
-19.660149 31.708948 -38.766 162 161 161
-19.660149 31.708948 -38.965 175 174 174
-19.660149 31.708948 -39.164 178 178 180
-19.660149 31.708948 -39.363 173 177 180
-19.834126 31.989388 -39.542 177 178 180
-19.834126 31.989388 -39.741 180 180 182
-20.701633 33.38824 -39.841 154 153 153
-20.008104 32.269825 -40.317 181 181 183
-20.008104 32.269825 -40.516 176 176 178
-20.008104 32.269825 -40.714 177 176 178
-20.008104 32.269825 -40.913 175 175 177
-20.008104 32.269825 -41.111 175 174 176
-20.182083 32.550266 -41.29 176 175 177
-20.354887 32.8296 -41.468 175 175 177
-20.354887 32.8296 -41.666 173 174 176
-20.354887 32.8296 -41.864 173 174 176
-20.354887 32.8296 -42.063 172 173 175
-20.354887 32.8296 -42.261 173 173 173
-20.354887 32.8296 -42.46 173 173 173
-20.52883 33.108902 -42.637 172 172 174
-21.392746 34.502174 -42.73 181 181 181
-20.701633 33.38824 -43.012 174 173 173
-20.701633 33.38824 -43.211 176 176 176
-20.701633 33.38824 -43.409 178 179 179
-20.701633 33.38824 -43.607 178 179 179
-20.701633 33.38824 -43.805 179 179 179
-20.87444 33.667576 -43.982 176 176 176
-20.87444 33.667576 -44.18 174 174 174
-21.735971 35.057503 -44.269 174 174 174
-21.047207 33.945774 -44.554 177 178 180
-21.047207 33.945774 -44.752 179 180 182
-21.047207 33.945774 -44.95 180 181 183
-21.047207 33.945774 -45.148 180 181 183
-21.047207 33.945774 -45.346 181 182 184
-21.047207 33.945774 -45.544 185 185 187
-21.219976 34.223972 -45.72 185 185 187
-21.219976 34.223972 -45.918 185 185 187
-21.392746 34.502174 -46.093 184 183 183
-21.392746 34.502174 -46.291 184 183 183
-21.392746 34.502174 -46.489 185 185 187
-21.392746 34.502174 -46.687 185 185 187
-21.564375 34.780407 -46.861 179 178 178
-21.564375 34.780407 -47.059 177 176 178
-21.564375 34.780407 -47.257 178 174 175
-21.735971 35.057503 -47.431 174 173 173
-21.735971 35.057503 -47.629 178 174 175
-21.908705 35.334564 -47.803 179 178 178
-21.908705 35.334564 -48.001 181 177 178
-21.908705 35.334564 -48.198 179 178 178
-21.908705 35.334564 -48.396 180 180 180
-21.908705 35.334564 -48.593 182 181 181
-22.0803 35.61166 -48.767 181 181 181
-22.0803 35.61166 -48.964 182 182 182
-22.0803 35.61166 -49.162 184 183 183
-22.0803 35.61166 -49.359 183 182 182
-22.0803 35.61166 -49.556 182 181 181
-22.0803 35.61166 -49.754 181 180 180
-22.0803 35.61166 -49.951 181 180 180
-22.0803 35.61166 -50.149 181 180 180
-22.251894 35.88876 -50.322 173 172 172
-22.251894 35.88876 -50.519 173 173 173
-22.251894 35.88876 -50.716 174 174 174
-22.251894 35.88876 -50.914 174 174 174
-22.423452 36.16472 -51.086 174 173 173
-22.423452 36.16472 -51.283 176 175 175
-22.423452 36.16472 -51.48 181 180 180
-22.593874 36.440712 -51.652 183 182 182
-22.593874 36.440712 -51.849 187 186 186
-22.593874 36.440712 -52.638 187 186 186
-23.44815 37.8172 -52.706 147 147 149
-22.593874 36.440712 -53.032 182 182 184
-22.593874 36.440712 -53.229 179 179 179
-23.44815 37.8172 -53.296 143 139 140
-22.593874 36.440712 -53.821 168 169 169
-23.277765 37.542343 -53.912 135 136 136
-23.277765 37.542343 -54.109 139 138 138
-23.277765 37.542343 -54.306 150 146 143
-22.593874 36.440712 -54.609 163 162 162
-22.765434 36.71667 -54.78 161 160 160
-22.593874 36.440712 -55.004 162 161 161
-22.765434 36.71667 -55.174 162 161 161
-22.765434 36.71667 -55.371 154 154 154
-22.765434 36.71667 -55.568 162 161 161
-22.935856 36.992664 -55.738 185 185 185
-22.935856 36.992664 -55.935 192 193 193
-22.935856 36.992664 -56.132 193 194 194
-22.935856 36.992664 -56.329 188 187 185
-22.935856 36.992664 -56.526 183 182 182
-22.935856 36.992664 -56.722 175 175 173
-22.935856 36.992664 -56.919 164 164 164
-22.935856 36.992664 -57.116 147 146 146
-22.935856 36.992664 -57.313 154 154 152
-22.935856 36.992664 -57.51 157 158 158
-22.935856 36.992664 -57.707 159 160 160
-22.935856 36.992664 -57.904 160 161 163
-22.935856 36.992664 -58.101 165 165 165
-22.935856 36.992664 -58.298 167 168 168
-23.107378 37.267487 -58.466 174 175 175
-23.107378 37.267487 -58.663 179 180 180
-23.277765 37.542343 -58.831 185 186 188
-23.277765 37.542343 -59.028 186 187 187
-23.277765 37.542343 -59.225 184 185 187
-23.277765 37.542343 -59.422 181 182 182
-23.277765 37.542343 -59.618 179 180 182
-23.277765 37.542343 -59.815 178 178 178
-23.277765 37.542343 -60.012 175 175 173
-23.277765 37.542343 -60.209 173 172 172
-23.277765 37.542343 -60.405 169 168 166
-23.44815 37.8172 -60.573 158 149 150
-23.44815 37.8172 -60.769 158 152 152
-23.44815 37.8172 -60.966 158 154 155
-23.618536 38.092056 -61.133 157 151 151
-23.618536 38.092056 -61.329 154 153 151
-23.618536 38.092056 -61.526 155 154 152
-23.618536 38.092056 -61.722 155 154 154
-23.618536 38.092056 -61.919 157 153 152
-23.618536 38.092056 -62.116 153 154 156
-23.787783 38.366947 -62.282 144 145 145
-23.958134 38.640667 -62.448 122 126 125
-5.027731 7.567464 -5.594 114 115 117
-5.027731 7.567464 -5.801 111 112 114
-5.027731 7.567464 -6.009 114 114 116
-5.22564 7.86644 -6.42 115 115 119
-5.4246135 8.164207 -6.623 115 115 122
-5.6224513 8.462047 -6.827 115 115 122
-6.214756 9.354501 -7.229 111 114 120
-6.609152 9.947978 -7.635 111 112 116
-7.0023403 10.540391 -8.039 110 111 113
-7.5908074 11.426242 -8.438 107 111 114
-7.5908074 11.426242 -8.644 108 109 113
-7.7872944 11.720744 -8.846 107 108 112
-7.9826446 12.015318 -9.252 103 103 110
-8.177924 12.308755 -9.453 103 103 110
-9.151976 13.774948 -10.659 104 104 108
-9.346046 14.067321 -10.858 99 104 111
-9.540047 14.358557 -11.262 106 105 105
-9.926981 14.942238 -11.66 111 105 105
-10.120981 15.233474 -11.859 106 105 105
-11.084942 16.684332 -12.032 110 110 112
-11.277662 16.973368 -12.23 108 109 111
-10.506637 15.814953 -12.459 139 138 140
-10.700565 16.105053 -12.657 146 146 146
-10.892221 16.395296 -12.855 155 155 155
-11.084942 16.684332 -13.052 164 165 165
-11.084942 16.684332 -13.256 162 161 161
-11.277662 16.973368 -13.453 164 164 166
-11.469247 17.262474 -13.65 165 164 164
-11.469247 17.262474 -13.854 166 166 168
-11.6608305 17.55158 -14.05 167 167 169
-12.043928 18.128658 -14.24 167 167 167
-11.852344 17.839552 -14.45 171 171 173
-11.852344 17.839552 -14.654 170 171 173
-12.043928 18.128658 -14.85 169 169 171
-12.23537 18.415493 -15.046 169 169 171
-12.23537 18.415493 -15.249 169 169 171
-12.426883 18.703463 -15.445 171 171 173
-12.426883 18.703463 -15.648 169 169 171
-12.6171875 18.990368 -15.843 172 171 171
-12.6171875 18.990368 -16.046 169 169 171
-12.808701 19.27834 -16.241 170 169 169
-12.998934 19.564108 -16.436 168 168 170
-12.998934 19.564108 -16.639 168 167 167
-13.1892395 19.851013 -16.833 168 167 167
-13.1892395 19.851013 -17.036 166 167 167
-13.379473 20.136784 -17.23 167 167 167
-13.379473 20.136784 -17.433 168 167 167
-13.56857 20.422625 -17.627 169 168 168
-13.758803 20.708393 -17.82 170 169 169
-13.758803 20.708393 -18.023 170 169 169
-13.947901 20.994234 -18.216 171 167 168
-14.138063 21.278868 -18.409 169 165 166
-14.138063 21.278868 -18.612 170 166 167
-14.327089 21.563574 -18.804 166 165 167
-14.327089 21.563574 -19.007 167 166 168
-14.516115 21.848278 -19.199 166 165 167
-14.516115 21.848278 -19.401 168 167 169
-14.516115 21.848278 -19.603 169 168 170
-14.703933 22.131918 -19.795 168 167 169
-14.703933 22.131918 -19.997 168 167 167
-14.892887 22.415485 -20.189 169 165 166
-14.892887 22.415485 -20.391 170 166 167
-15.081841 22.699055 -20.583 167 166 168
-15.081841 22.699055 -20.785 168 167 167
-15.26966 22.982695 -20.976 166 167 171
-15.26966 22.982695 -21.178 167 167 169
-15.26966 22.982695 -21.379 164 165 165
-15.457407 23.265198 -21.57 160 160 160
-15.457407 23.265198 -21.772 154 158 159
-15.457407 23.265198 -21.973 152 153 153
-15.645225 23.548838 -22.164 151 152 154
-15.645225 23.548838 -22.365 158 159 161
-15.832972 23.83134 -22.555 169 169 171
-15.832972 23.83134 -22.757 171 171 173
-15.832972 23.83134 -22.958 171 172 174
-16.020647 24.112709 -23.148 171 171 171
-16.208393 24.395212 -23.338 170 169 171
-16.208393 24.395212 -23.539 172 171 171
-16.208393 24.395212 -23.74 172 171 171
-16.394932 24.676651 -23.929 171 167 168
-16.58147 24.95809 -24.118 171 171 171
-16.58147 24.95809 -24.319 174 174 174
-16.769075 25.238321 -24.508 174 174 174
-16.769075 25.238321 -24.709 175 174 174
-16.955614 25.51976 -24.897 174 173 173
-16.955614 25.51976 -25.098 172 171 171
-16.955614 25.51976 -25.299 174 173 175
-16.955614 25.51976 -25.5 174 173 173
-17.140945 25.800135 -25.688 175 171 170
-17.140945 25.800135 -25.888 173 172 172
-17.140945 25.800135 -26.089 172 171 171
-17.140945 25.800135 -26.29 172 171 171
-17.513807 26.359604 -26.464 173 172 172
-17.513807 26.359604 -26.665 176 176 178
-17.513807 26.359604 -26.865 179 179 181
-17.513807 26.359604 -27.066 181 181 183
-17.699139 26.639978 -27.252 183 183 185
-17.699139 26.639978 -27.453 185 185 187
-17.699139 26.639978 -27.653 187 187 187
-17.699139 26.639978 -27.854 188 188 190
-17.699139 26.639978 -28.054 189 188 188
-17.8844 26.919216 -28.24 187 187 189
-18.070795 27.198381 -28.426 183 182 184
-18.070795 27.198381 -28.627 179 179 183
-18.070795 27.198381 -28.827 178 178 178
-18.070795 27.198381 -29.427 176 176 176
-18.070795 27.198381 -29.628 175 175 175
-18.070795 27.198381 -29.828 175 174 174
-18.070795 27.198381 -30.028 179 178 178
-18.070795 27.198381 -30.228 180 179 181
-18.070795 27.198381 -30.428 182 178 181
-18.070795 27.198381 -30.628 178 174 175
-18.070795 27.198381 -30.829 172 166 168
-18.070795 27.198381 -31.029 164 158 160
-18.070795 27.198381 -31.229 159 153 155
-18.070795 27.198381 -31.429 154 153 153
-18.255983 27.476484 -31.614 159 158 158
-18.440105 27.755793 -31.798 167 166 166
-18.625294 28.033895 -31.982 199 199 199
-18.625294 28.033895 -32.182 204 204 204
-18.810411 28.31086 -32.366 195 196 198
-18.810411 28.31086 -32.566 196 196 198
-18.994463 28.589033 -32.749 195 196 200
-18.994463 28.589033 -32.949 200 199 199
-19.178444 28.86607 -33.132 193 193 195
-19.178444 28.86607 -33.332 191 190 192
-19.178444 28.86607 -33.531 187 187 189
-19.362423 29.143106 -33.714 182 182 184
-19.546404 29.420143 -33.897 179 179 181
-19.546404 29.420143 -34.096 175 175 175
-19.546404 29.420143 -34.296 171 172 172
-19.546404 29.420143 -34.495 165 165 165
-19.546404 29.420143 -34.694 153 152 152
-19.546404 29.420143 -34.894 146 145 145
-19.730385 29.69718 -35.076 162 156 156
-19.730385 29.69718 -35.275 159 158 156
-19.914293 29.973082 -35.457 170 169 169
-19.914293 29.973082 -35.656 180 180 182
-19.914293 29.973082 -35.855 188 188 190
-19.914293 29.973082 -36.054 196 196 198
-19.914293 29.973082 -36.254 196 197 201
-20.280975 30.524954 -36.417 180 180 184
-20.280975 30.524954 -36.616 180 180 182
-20.280975 30.524954 -36.815 181 181 183
-20.280975 30.524954 -37.014 180 180 184
-20.280975 30.524954 -37.213 185 185 185
-20.463747 30.800926 -37.393 184 183 185
-20.646448 31.075762 -37.574 186 186 190
-20.646448 31.075762 -37.772 191 191 198
-20.646448 31.075762 -37.971 193 193 200
-20.646448 31.075762 -38.17 193 193 197
-20.829151 31.350597 -38.35 182 183 187
-20.829151 31.350597 -38.548 180 180 184
-21.74017 32.72151 -38.652 154 149 144
-21.011852 31.625433 -38.927 170 171 175
-21.011852 31.625433 -39.125 172 173 177
-21.011852 31.625433 -39.324 171 172 176
-21.011852 31.625433 -39.522 167 168 172
-21.011852 31.625433 -39.721 166 167 171
-21.194553 31.900269 -39.9 168 172 173
-21.194553 31.900269 -40.099 168 169 171
-22.103085 33.267918 -40.198 162 162 162
-22.103085 33.267918 -40.396 168 169 169
-21.376045 32.17404 -40.674 170 171 173
-21.376045 32.17404 -40.872 171 172 174
-21.376045 32.17404 -41.071 171 171 171
-21.376045 32.17404 -41.269 170 171 173
-21.376045 32.17404 -41.468 170 171 173
-21.558676 32.44774 -41.645 172 172 174
-21.74017 32.72151 -41.823 171 172 174
-21.74017 32.72151 -42.021 171 172 174
-21.74017 32.72151 -42.22 172 172 174
-21.74017 32.72151 -42.418 172 172 174
-21.74017 32.72151 -42.616 173 173 175
-21.74017 32.72151 -42.814 174 174 176
-21.921663 32.99528 -42.991 173 172 172
-21.921663 32.99528 -43.189 173 173 173
-22.103085 33.267918 -43.366 173 174 174
-22.103085 33.267918 -43.564 174 175 175
-22.103085 33.267918 -43.762 175 175 175
-22.103085 33.267918 -43.96 175 175 175
-22.103085 33.267918 -44.158 175 175 175
-22.103085 33.267918 -44.356 177 176 176
-22.103085 33.267918 -44.554 178 178 180
-22.284506 33.54055 -44.73 175 176 178
-23.187992 34.90053 -44.818 174 174 176
-22.465929 33.813187 -45.104 174 175 177
-22.465929 33.813187 -45.302 179 179 179
-22.465929 33.813187 -45.5 181 181 181
-22.465929 33.813187 -45.697 181 181 181
-22.465929 33.813187 -45.895 181 181 183
-22.465929 33.813187 -46.093 181 182 184
-22.646214 34.08589 -46.268 181 182 182
-22.646214 34.08589 -46.466 185 185 185
-22.826427 34.357464 -46.838 181 180 180
-22.826427 34.357464 -47.036 179 179 179
-23.007778 34.62896 -47.21 178 174 171
-23.007778 34.62896 -47.408 177 176 172
-23.187992 34.90053 -47.582 172 171 169
-23.187992 34.90053 -47.78 175 174 174
-23.187992 34.90053 -47.977 180 179 179
-23.368208 35.1721 -48.151 180 179 179
-23.368208 35.1721 -48.348 182 181 181
-23.368208 35.1721 -48.545 183 183 185
-23.54835 35.442535 -48.719 180 180 182
-23.54835 35.442535 -48.916 180 181 183
-23.54835 35.442535 -49.113 181 182 182
-23.54835 35.442535 -49.311 181 182 182
-23.54835 35.442535 -49.508 182 183 183
-23.54835 35.442535 -49.705 182 183 183
-23.54835 35.442535 -49.902 182 183 183
-23.54835 35.442535 -50.1 181 182 182
-23.54835 35.442535 -50.297 181 182 184
-23.54835 35.442535 -50.494 180 180 180
-23.727356 35.71304 -50.667 174 174 174
-23.727356 35.71304 -50.864 172 173 175
-23.727356 35.71304 -51.061 172 171 171
-23.9075 35.983475 -51.233 174 173 173
-23.9075 35.983475 -51.43 176 175 175
-23.9075 35.983475 -51.627 177 176 176
-24.086506 36.25398 -51.799 181 180 182
-24.086506 36.25398 -51.996 181 181 183
-24.086506 36.25398 -52.193 183 183 187
-24.086506 36.25398 -52.39 184 183 185
-24.266577 36.523277 -52.561 180 180 182
-24.266577 36.523277 -52.758 179 180 182
-24.266577 36.523277 -52.954 178 179 179
-24.266577 36.523277 -53.151 176 176 176
-24.44551 36.792645 -53.716 164 164 164
-24.266577 36.523277 -54.136 162 161 161
-24.266577 36.523277 -54.332 161 160 160
-24.266577 36.523277 -54.529 158 158 158
-24.266577 36.523277 -54.726 155 155 153
-24.266577 36.523277 -54.923 154 154 154
-24.266577 36.523277 -55.12 154 154 156
-24.44551 36.792645 -55.29 153 154 158
-24.44551 36.792645 -55.486 159 159 161
-24.44551 36.792645 -55.683 165 166 168
-24.44551 36.792645 -55.88 169 173 174
-24.44551 36.792645 -56.077 177 178 178
-24.44551 36.792645 -56.274 181 182 182
-24.624447 37.062016 -56.443 176 180 181
-24.624447 37.062016 -56.639 166 167 167
-24.624447 37.062016 -56.836 158 159 159
-24.624447 37.062016 -57.033 152 153 153
-24.624447 37.062016 -57.229 151 152 152
-24.624447 37.062016 -57.426 153 153 153
-24.624447 37.062016 -57.623 155 155 155
-24.624447 37.062016 -57.819 155 155 155
-24.624447 37.062016 -58.016 160 159 159
-24.44551 36.792645 -58.241 160 160 164
-24.624447 37.062016 -58.409 158 158 162
-24.803381 37.331383 -58.577 169 169 173
-24.624447 37.062016 -58.803 164 164 166
-24.803381 37.331383 -58.971 178 178 180
-24.803381 37.331383 -59.167 181 180 180
-24.803381 37.331383 -59.364 182 182 182
-24.803381 37.331383 -59.56 182 183 183
-24.803381 37.331383 -59.757 181 182 182
-24.98118 37.600822 -59.924 180 179 179
-24.98118 37.600822 -60.121 174 173 173
-24.98118 37.600822 -60.317 171 165 167
-25.160044 37.869057 -60.484 156 152 153
-25.160044 37.869057 -60.68 153 149 150
-25.160044 37.869057 -60.877 153 149 150
-25.160044 37.869057 -61.073 155 151 152
-25.160044 37.869057 -61.269 153 152 152
-25.160044 37.869057 -61.466 158 154 153
-25.160044 37.869057 -61.662 161 157 156
-25.160044 37.869057 -61.859 156 155 155
-25.160044 37.869057 -62.055 154 153 153
-25.160044 37.869057 -62.251 151 150 150
-25.33777 38.13736 -62.417 149 145 142
-25.33777 38.13736 -62.614 147 143 140
-25.516634 38.405594 -62.779 137 131 131
-25.69429 38.67276 -62.945 111 105 107
-5.26295 7.405805 -6.009 113 117 120
-5.4701524 7.6984167 -6.42 115 116 120
-5.678381 7.9897876 -6.623 114 115 119
-6.5055213 9.154675 -7.229 111 112 116
-6.9183645 9.735471 -7.635 113 114 118
-8.560515 12.045806 -8.22 111 112 114
-7.9459686 11.182171 -8.438 109 110 114
-8.151609 11.470356 -8.64 109 110 112
-8.151609 11.470356 -8.846 104 109 114
-8.356116 11.758648 -9.047 108 108 112
-8.356116 11.758648 -9.252 108 109 113
-8.560515 12.045806 -9.453 106 106 113
-8.764915 12.332965 -9.654 104 105 109
-8.969316 12.620124 -9.854 101 106 111
-9.376982 13.194549 -10.254 105 111 113
-9.580141 13.48068 -10.454 106 112 112
-9.7833 13.766813 -10.653 108 109 111
-9.986352 14.051812 -11.058 111 110 110
-10.189511 14.337944 -11.257 110 110 117
-10.39143 14.623051 -11.455 104 104 111
-10.39143 14.623051 -11.66 105 104 111
-10.796293 15.192022 -12.057 110 109 111
-10.998212 15.477128 -12.255 118 118 122
-11.201157 15.760994 -12.453 128 129 131
-11.603539 16.327913 -12.848 151 151 151
-11.603539 16.327913 -13.052 159 159 159
-11.8052435 16.610752 -13.249 160 161 161
-12.005815 16.893698 -13.446 158 162 165
-12.005815 16.893698 -13.65 160 161 161
-12.206386 17.176645 -13.847 161 167 169
-12.406849 17.458458 -14.043 167 168 168
-12.406849 17.458458 -14.247 167 168 168
-12.60742 17.741404 -14.443 166 167 167
-12.807776 18.022083 -14.639 166 167 167
-12.807776 18.022083 -14.842 167 167 167
-13.008241 18.303896 -15.038 166 167 169
-13.207463 18.584682 -15.234 168 168 168
-13.207463 18.584682 -15.437 166 167 169
-13.207463 18.584682 -15.64 165 166 168
-13.4079275 18.866495 -15.835 167 167 169
-13.607043 19.146149 -16.03 168 167 167
-13.607043 19.146149 -16.233 167 166 168
-13.607043 19.146149 -16.436 163 162 162
-13.806267 19.426935 -16.63 162 161 161
-13.806267 19.426935 -16.833 161 160 160
-14.005383 19.706589 -17.027 164 160 161
-14.005383 19.706589 -17.23 161 160 160
-14.203365 19.986347 -17.424 165 164 164
-14.402481 20.266 -17.618 167 166 166
-14.600464 20.545761 -17.811 168 167 169
-15.589626 21.936628 -17.969 160 160 164
-14.799472 20.824282 -18.207 168 167 169
-14.799472 20.824282 -18.409 170 166 167
-14.997348 21.102907 -18.602 168 167 167
-15.195223 21.381535 -18.795 170 164 166
-15.195223 21.381535 -18.997 170 166 167
-15.195223 21.381535 -19.199 170 166 167
-15.391858 21.659136 -19.391 167 166 166
-15.589626 21.936628 -19.584 167 163 164
-15.589626 21.936628 -19.786 166 165 165
-15.787395 22.21412 -19.977 164 164 164
-15.787395 22.21412 -20.179 165 164 164
-15.787395 22.21412 -20.381 164 164 164
-15.984029 22.491722 -20.572 163 162 162
-16.180557 22.768188 -20.764 162 161 161
-16.180557 22.768188 -20.965 163 162 162
-16.180557 22.768188 -21.167 162 161 161
-16.180557 22.768188 -21.369 161 160 160
-16.377192 23.04579 -21.559 159 159 161
-16.573719 23.322256 -21.75 158 152 156
-16.573719 23.322256 -21.951 156 150 154
-16.573719 23.322256 -22.153 157 152 160
-16.573719 23.322256 -22.354 162 160 167
-16.77014 23.59759 -22.544 157 158 162
-16.77014 23.59759 -22.745 164 164 164
-16.77014 23.59759 -22.947 166 166 164
-16.966667 23.874058 -23.136 167 167 165
-16.966667 23.874058 -23.338 169 169 167
-17.161955 24.149498 -23.527 171 171 169
-17.35724 24.424938 -23.716 168 168 168
-17.35724 24.424938 -23.917 168 169 169
-17.553555 24.699139 -24.106 169 169 169
-17.748842 24.974579 -24.295 168 167 169
-17.748842 24.974579 -24.496 172 172 174
-17.748842 24.974579 -24.697 173 173 175
-17.942888 25.248993 -24.885 172 172 174
-18.13807 25.5233 -25.073 169 169 171
-18.13807 25.5233 -25.274 169 169 171
-18.13807 25.5233 -25.474 171 171 173
-18.13807 25.5233 -25.675 172 171 173
-18.13807 25.5233 -25.875 169 169 171
-18.333141 25.796474 -26.063 168 167 169
-18.527187 26.070889 -26.25 168 167 167
-18.527187 26.070889 -26.451 168 167 167
-18.527187 26.070889 -26.651 169 168 168
-18.721127 26.34417 -26.838 172 172 174
-18.527187 26.070889 -27.052 175 174 176
-18.916199 26.617344 -27.225 176 176 178
-18.721127 26.34417 -27.439 177 178 182
-18.916199 26.617344 -27.626 180 180 182
-18.916199 26.617344 -27.826 182 181 183
-19.110031 26.889492 -28.012 183 182 184
-19.110031 26.889492 -28.212 183 182 184
-19.302837 27.16288 -28.398 181 180 182
-19.302837 27.16288 -28.598 179 178 180
-19.302837 27.16288 -28.798 176 175 177
-19.49667 27.435026 -28.984 173 173 177
-19.49667 27.435026 -29.184 174 173 173
-19.690395 27.706041 -29.569 174 170 171
-19.49667 27.435026 -30.183 170 169 169
-19.49667 27.435026 -30.383 168 167 167
-19.302837 27.16288 -30.598 160 159 159
-19.302837 27.16288 -30.798 155 154 154
-19.302837 27.16288 -30.998 151 150 150
-19.49667 27.435026 -31.182 145 144 144
-19.302837 27.16288 -31.398 140 139 137
-19.49667 27.435026 -31.582 146 145 145
-19.49667 27.435026 -31.782 148 147 147
-19.49667 27.435026 -31.982 151 150 150
-19.690395 27.706041 -32.166 151 152 156
-19.883093 27.978296 -32.35 173 172 174
-19.883093 27.978296 -32.549 177 176 176
-20.075686 28.249416 -32.733 184 185 187
-20.075686 28.249416 -32.932 187 188 190
-20.268276 28.520538 -33.116 193 192 192
-20.460869 28.791658 -33.299 185 185 187
-20.460869 28.791658 -33.498 181 181 183
-20.460869 28.791658 -33.697 178 178 180
-20.65346 29.06278 -33.88 176 175 175
-20.845943 29.332767 -34.062 167 168 172
-20.845943 29.332767 -34.262 165 164 164
-20.845943 29.332767 -34.461 162 162 162
-21.037294 29.602863 -34.643 156 155 155
-21.037294 29.602863 -34.842 154 153 153
-21.22978 29.87285 -35.024 145 144 142
-21.22978 29.87285 -35.223 145 145 145
-21.22978 29.87285 -35.422 152 153 153
-21.22978 29.87285 -35.621 159 163 164
-21.22978 29.87285 -35.82 165 169 170
-21.22978 29.87285 -36.019 171 175 176
-21.22978 29.87285 -36.218 178 182 183
-21.421131 30.142946 -36.399 187 188 192
-21.612375 30.411907 -36.58 185 186 188
-21.612375 30.411907 -36.778 184 185 187
-21.612375 30.411907 -36.977 185 186 186
-21.612375 30.411907 -37.176 184 185 185
-21.803617 30.680868 -37.356 187 188 190
-21.994862 30.94983 -37.536 192 192 192
-21.994862 30.94983 -37.735 182 183 183
-21.994862 30.94983 -37.934 180 180 180
-22.186106 31.21879 -38.113 191 190 190
-22.37611 31.486727 -38.293 185 186 188
-22.37611 31.486727 -38.491 179 180 182
-22.37611 31.486727 -38.69 172 173 175
-22.37611 31.486727 -38.888 169 173 174
-22.37611 31.486727 -39.087 167 167 167
-22.567245 31.754555 -39.266 154 154 156
-22.567245 31.754555 -39.464 151 152 156
-23.516941 33.090828 -39.565 160 161 163
-22.75725 32.022488 -39.841 152 155 161
-22.75725 32.022488 -40.039 156 160 163
-22.75725 32.022488 -40.237 157 161 164
-22.75725 32.022488 -40.436 159 160 162
-22.75725 32.022488 -40.634 159 160 162
-22.75725 32.022488 -40.832 161 162 164
-22.75725 32.022488 -41.03 163 164 164
-22.947252 32.290424 -41.208 165 166 166
-22.947252 32.290424 -41.406 166 167 167
-23.89436 33.623512 -41.502 168 168 170
-23.137148 32.557224 -41.782 171 172 172
-23.137148 32.557224 -41.98 173 174 174
-23.137148 32.557224 -42.178 174 175 177
-23.137148 32.557224 -42.376 175 176 178
-23.137148 32.557224 -42.574 177 178 180
-23.327045 32.824028 -42.751 174 175 177
-23.327045 32.824028 -42.949 174 175 177
-23.516941 33.090828 -43.126 173 172 172
-23.516941 33.090828 -43.324 173 172 172
-23.516941 33.090828 -43.521 175 174 172
-23.516941 33.090828 -43.719 174 174 174
-23.705704 33.35774 -43.895 172 172 172
-23.705704 33.35774 -44.093 174 174 174
-23.705704 33.35774 -44.291 175 176 176
-23.89436 33.623512 -44.467 176 176 178
-23.89436 33.623512 -44.664 177 178 182
-23.89436 33.623512 -44.862 179 179 183
-23.89436 33.623512 -45.06 180 180 182
-24.084148 33.889183 -45.433 182 181 181
-24.084148 33.889183 -45.63 181 181 183
-24.084148 33.889183 -45.828 181 181 181
-24.084148 33.889183 -46.025 181 181 181
-24.272802 34.154957 -46.2 181 181 181
-24.272802 34.154957 -46.398 182 182 184
-24.272802 34.154957 -46.595 183 183 185
-24.272802 34.154957 -46.792 182 182 184
-24.461458 34.42073 -46.967 182 182 184
-24.461458 34.42073 -47.164 183 183 185
-24.650007 34.685375 -47.338 188 188 188
-24.650007 34.685375 -47.535 189 190 192
-24.837421 34.950123 -47.709 189 190 190
-24.837421 34.950123 -47.906 192 193 195
-25.02597 35.214764 -48.08 189 189 189
-25.02597 35.214764 -48.277 190 189 189
-25.213385 35.479515 -48.45 189 188 188
-25.213385 35.479515 -48.647 188 187 187
-25.213385 35.479515 -48.844 187 187 187
-25.213385 35.479515 -49.041 185 186 186
-25.213385 35.479515 -49.238 185 186 186
-25.401827 35.743023 -49.411 182 183 185
-25.401827 35.743023 -49.608 181 182 184
-25.401827 35.743023 -49.805 180 181 181
-25.401827 35.743023 -50.002 179 180 182
-25.589134 36.006638 -50.174 175 175 177
-25.589134 36.006638 -50.371 175 174 174
-25.589134 36.006638 -50.567 172 172 174
-25.589134 36.006638 -50.764 172 172 172
-25.776442 36.270252 -51.329 160 160 162
-25.776442 36.270252 -51.526 166 166 166
-25.776442 36.270252 -51.723 172 171 171
-25.776442 36.270252 -51.919 176 175 175
-25.963749 36.53387 -52.091 181 180 180
-25.963749 36.53387 -52.287 186 185 185
-25.963749 36.53387 -52.484 186 185 185
-25.963749 36.53387 -52.68 184 183 183
-25.963749 36.53387 -52.877 183 182 182
-26.149923 36.797592 -53.048 179 178 178
-26.149923 36.797592 -53.244 175 175 175
-26.149923 36.797592 -53.44 175 174 174
-26.149923 36.797592 -53.637 171 172 172
-26.337124 37.060074 -53.807 165 165 165
-26.337124 37.060074 -54.004 165 164 164
-26.337124 37.060074 -54.2 161 160 158
-26.337124 37.060074 -54.396 155 154 150
-26.337124 37.060074 -54.593 151 150 148
-26.337124 37.060074 -54.789 149 148 148
-26.337124 37.060074 -54.985 149 148 148
-26.337124 37.060074 -55.182 152 152 152
-26.337124 37.060074 -55.378 154 155 155
-26.337124 37.060074 -55.575 156 157 157
-26.337124 37.060074 -55.771 151 152 152
-26.337124 37.060074 -55.967 149 150 152
-26.337124 37.060074 -56.164 149 148 148
-26.523191 37.322662 -56.333 170 171 171
-26.337124 37.060074 -56.556 163 164 164
-26.523191 37.322662 -56.725 162 161 161
-26.523191 37.322662 -56.921 163 159 160
-26.523191 37.322662 -57.118 162 161 161
-26.710392 37.585144 -57.286 160 156 157
-26.710392 37.585144 -57.482 158 157 157
-26.710392 37.585144 -57.678 159 158 160
-27.26838 38.370647 -57.79 165 164 164
-26.710392 37.585144 -58.071 155 154 154
-27.26838 38.370647 -58.182 171 171 173
-27.26838 38.370647 -58.378 177 178 178
-26.710392 37.585144 -58.659 146 147 147
-26.710392 37.585144 -58.856 153 153 153
-26.710392 37.585144 -59.052 158 158 158
-26.710392 37.585144 -59.248 163 162 162
-26.710392 37.585144 -59.444 167 167 167
-26.710392 37.585144 -59.64 171 172 174
-26.710392 37.585144 -59.836 172 172 174
-26.710392 37.585144 -60.033 173 173 175
-26.710392 37.585144 -60.229 171 172 172
-26.896353 37.8466 -60.396 172 172 172
-27.082312 38.108055 -60.562 160 159 159
-27.082312 38.108055 -60.758 152 151 149
-27.082312 38.108055 -60.954 148 142 140
-27.082312 38.108055 -61.15 147 141 141
-27.082312 38.108055 -61.346 149 145 144
-27.082312 38.108055 -61.542 151 147 146
-27.082312 38.108055 -61.738 150 146 147
-27.082312 38.108055 -61.934 149 145 146
-27.082312 38.108055 -62.13 148 144 145
-27.26838 38.370647 -62.296 144 143 143
-27.26838 38.370647 -62.492 141 140 140
-27.26838 38.370647 -62.688 140 139 139
-27.454233 38.63097 -62.853 138 137 137
-27.454233 38.63097 -63.049 140 136 137
-27.454233 38.63097 -63.244 138 134 135
-27.454233 38.63097 -63.44 132 126 126
-27.63906 38.892532 -63.605 107 97 92
-5.4929748 7.2368374 -5.801 111 114 120
-5.709266 7.522796 -6.006 113 113 120
-5.709266 7.522796 -6.213 111 114 120
-5.926544 7.807483 -6.416 113 113 122
-5.926544 7.807483 -6.623 111 111 120
-6.3588414 8.377142 -6.823 107 112 121
-6.3588414 8.377142 -7.03 107 112 117
-6.789867 8.945814 -7.229 109 113 116
-7.0058727 9.229513 -7.432 108 112 115
-8.079684 10.644208 -7.619 111 112 116
-7.435483 9.796069 -7.837 104 113 114
-8.507879 11.208648 -8.023 109 113 116
-8.079684 10.644208 -8.237 108 112 115
-8.293288 10.927064 -8.438 106 112 114
-8.507879 11.208648 -8.64 106 112 114
-8.721341 11.490374 -8.841 105 110 115
-8.721341 11.490374 -9.047 105 111 113
-9.147979 12.051567 -9.243 104 108 111
-9.147979 12.051567 -9.448 101 104 110
-9.147979 12.051567 -9.654 103 104 108
-9.573486 12.612903 -9.849 108 109 113
-9.573486 12.612903 -10.054 110 110 114
-9.786805 12.893499 -10.254 115 114 116
-9.998852 13.173109 -10.454 112 112 116
-10.210898 13.452719 -10.653 110 108 115
-10.63485 14.010809 -10.847 109 108 115
-10.845624 14.289433 -11.046 109 108 115
-11.057528 14.567912 -11.245 108 109 113
-11.268159 14.845406 -11.444 104 108 111
-11.268159 14.845406 -11.648 100 106 108
-11.478933 15.124029 -11.846 99 102 110
-11.690695 15.40138 -12.045 97 100 108
-11.690695 15.40138 -12.249 102 102 109
-12.110686 15.9553795 -12.44 109 108 115
-12.110686 15.9553795 -12.644 129 130 132
-12.530535 16.508251 -12.835 127 128 130
-12.739894 16.784758 -13.032 135 139 142
-12.949111 17.060135 -13.229 146 146 146
-12.949111 17.060135 -13.433 154 158 159
-13.15847 17.336641 -13.629 158 159 159
-13.15847 17.336641 -13.833 160 161 163
-13.367544 17.610888 -14.029 160 161 163
-13.576761 17.886265 -14.225 161 161 161
-13.784705 18.160656 -14.421 160 160 162
-13.784705 18.160656 -14.624 161 161 163
-13.993922 18.436033 -14.82 164 164 166
-13.993922 18.436033 -15.023 165 166 170
-14.201724 18.709293 -15.218 174 173 173
-14.201724 18.709293 -15.421 168 169 171
-14.409669 18.983683 -15.616 167 167 169
-14.409669 18.983683 -15.819 165 166 168
-14.617471 19.256945 -16.014 165 166 168
-14.617471 19.256945 -16.217 164 164 164
-14.824142 19.530348 -16.411 164 164 164
-14.824142 19.530348 -16.614 161 161 161
-15.031944 19.803608 -16.808 163 162 162
-15.031944 19.803608 -17.01 162 161 161
-15.238617 20.077011 -17.204 163 162 162
-15.238617 20.077011 -17.406 163 162 162
-15.446276 20.349142 -17.6 165 164 164
-15.652805 20.621416 -17.793 165 164 164
-15.652805 20.621416 -17.996 163 162 162
-15.859335 20.89369 -18.189 161 161 161
-15.859335 20.89369 -18.391 162 161 161
-16.064592 21.164978 -18.584 160 160 160
-16.270979 21.436123 -18.776 160 159 159
-16.270979 21.436123 -18.978 164 160 161
-16.477367 21.707266 -19.17 162 161 161
-16.477367 21.707266 -19.372 163 162 162
-16.682625 21.978554 -19.564 163 159 160
-16.682625 21.978554 -19.766 162 161 161
-16.88774 22.24871 -19.957 162 161 161
-16.88774 22.24871 -20.159 162 161 161
-17.092997 22.519999 -20.35 161 160 160
-17.092997 22.519999 -20.552 161 160 160
-17.298111 22.790155 -20.743 160 159 159
-17.298111 22.790155 -20.944 161 160 160
-17.503082 23.059183 -21.135 160 159 161
-17.503082 23.059183 -21.336 156 155 157
-17.708199 23.32934 -21.527 152 152 152
-17.708199 23.32934 -21.728 150 150 150
-17.708199 23.32934 -21.929 149 148 148
-17.708199 23.32934 -22.131 145 144 144
-17.91204 23.59851 -22.321 148 148 148
-17.91204 23.59851 -22.522 152 153 153
-18.115883 23.867682 -22.711 168 169 169
-18.115883 23.867682 -22.912 164 165 167
-18.115883 23.867682 -23.113 164 164 166
-18.320711 24.13558 -23.303 164 165 167
-18.524555 24.40475 -23.492 164 164 164
-18.524555 24.40475 -23.693 165 165 167
-18.727125 24.672935 -23.882 166 165 165
-18.930824 24.940977 -24.07 167 167 169
-18.930824 24.940977 -24.271 170 169 171
-19.134382 25.207888 -24.459 169 169 173
-19.134382 25.207888 -24.66 171 171 173
-19.336952 25.476072 -24.848 168 168 172
-19.336952 25.476072 -25.048 168 168 170
-19.53938 25.743126 -25.236 166 166 168
-19.53938 25.743126 -25.436 167 166 166
-19.53938 25.743126 -25.637 166 165 165
-19.742937 26.010038 -25.824 164 164 166
-19.742937 26.010038 -26.024 162 162 162
-19.742937 26.010038 -26.224 162 161 161
-19.94522 26.275963 -26.411 165 165 167
-19.94522 26.275963 -26.612 166 167 169
-19.94522 26.275963 -26.812 168 169 171
-20.146519 26.54316 -26.998 173 173 175
-20.146519 26.54316 -27.198 174 174 176
-20.348804 26.809084 -27.385 176 176 178
-20.348804 26.809084 -27.585 176 176 180
-20.348804 26.809084 -27.784 178 179 183
-20.550947 27.07388 -27.97 179 179 186
-20.550947 27.07388 -28.17 178 179 183
-20.550947 27.07388 -28.37 176 176 178
-20.752102 27.339947 -28.556 174 173 173
-20.953115 27.604885 -28.741 168 168 168
-20.953115 27.604885 -28.941 167 166 168
-20.953115 27.604885 -29.14 168 167 169
-20.953115 27.604885 -29.34 167 166 170
-20.953115 27.604885 -29.539 168 167 167
-21.154127 27.869823 -29.724 168 168 170
-21.154127 27.869823 -29.924 171 171 173
-20.953115 27.604885 -30.138 171 171 173
-20.953115 27.604885 -30.338 164 164 166
-20.953115 27.604885 -30.537 159 158 160
-20.953115 27.604885 -30.737 152 151 151
-20.752102 27.339947 -30.952 147 146 146
-20.953115 27.604885 -31.136 144 143 143
-20.953115 27.604885 -31.336 142 142 142
-20.953115 27.604885 -31.535 144 143 143
-20.953115 27.604885 -31.735 144 144 144
-21.154127 27.869823 -31.919 145 145 145
-21.154127 27.869823 -32.118 147 147 149
-21.35514 28.13476 -32.302 168 172 171
-21.556152 28.399698 -32.485 182 183 185
-21.556152 28.399698 -32.684 180 181 183
-21.757023 28.663507 -32.867 181 182 184
-21.757023 28.663507 -33.066 180 181 183
-21.956762 28.927458 -33.249 179 179 181
-21.757023 28.663507 -33.465 172 172 172
-21.757023 28.663507 -33.664 170 169 169
-21.956762 28.927458 -33.846 173 172 172
-22.157633 29.191267 -34.029 166 166 166
-22.157633 29.191267 -34.228 164 165 165
-22.157633 29.191267 -34.427 163 164 164
-22.357374 29.455217 -34.609 158 159 159
-22.55697 29.718039 -34.79 147 147 147
-22.55697 29.718039 -34.989 147 147 149
-22.55697 29.718039 -35.188 153 153 155
-22.55697 29.718039 -35.387 160 161 161
-22.756569 29.980862 -35.568 165 165 165
-22.756569 29.980862 -35.767 167 168 170
-22.956167 30.243683 -35.948 174 183 184
-22.956167 30.243683 -36.146 182 188 188
-22.956167 30.243683 -36.345 182 186 187
-23.155764 30.506504 -36.525 177 181 184
-23.155764 30.506504 -36.724 185 185 187
-23.35409 30.76834 -36.904 178 179 181
-23.35409 30.76834 -37.103 186 187 189
