ply
format ascii 1.0
element vertex 1187
property float x
property float y
property float z
property uchar red
property uchar green
property uchar blue
end_header
-55.934486 5.879149 -34.385 164 163 163
-56.24446 5.911562 -34.561 163 160 160
-56.554432 5.943975 -34.738 160 159 159
-56.554432 5.943975 -34.931 162 161 161
-56.86374 5.977309 -35.107 158 158 158
-56.86374 5.977309 -35.3 160 160 160
-57.17279 6.0090528 -35.475 155 156 156
-57.17279 6.0090528 -35.668 158 157 157
-57.481174 6.041718 -35.844 156 156 156
-57.481174 6.041718 -36.037 159 159 159
-57.79023 6.0734615 -36.212 159 158 158
-57.79023 6.0734615 -36.405 161 160 160
-57.79023 6.0734615 -36.597 164 163 163
-58.098614 6.106127 -36.772 163 162 162
-58.098614 6.106127 -36.965 166 165 165
-58.406075 6.1381226 -37.14 166 165 165
-58.406075 6.1381226 -37.332 168 167 167
-58.71379 6.1717086 -37.506 165 163 163
-58.71379 6.1717086 -37.699 166 163 164
-59.02125 6.203704 -37.873 162 158 159
-59.02125 6.203704 -38.065 162 158 157
-59.02125 6.203704 -38.258 160 156 155
-59.327793 6.2350307 -38.431 154 152 150
-59.327793 6.2350307 -38.624 153 151 148
-59.634586 6.267947 -38.797 153 152 149
-59.634586 6.267947 -38.989 155 154 150
-59.94046 6.300195 -39.163 161 157 155
-59.94046 6.300195 -39.355 163 158 156
-60.247925 6.3321905 -39.528 163 159 157
-60.247925 6.3321905 -39.72 161 160 156
-60.552876 6.363769 -39.892 161 158 155
-60.552876 6.363769 -40.084 157 155 153
-60.552876 6.363769 -40.276 152 151 149
-60.85875 6.3960166 -40.449 147 146 144
-60.85875 6.3960166 -40.64 144 144 137
-61.16395 6.4291854 -40.813 139 139 135
-61.16395 6.4291854 -41.004 141 140 135
-61.16395 6.4291854 -41.196 141 140 136
-61.468903 6.460764 -41.368 139 138 134
-61.16395 6.4291854 -41.579 145 144 140
-61.468903 6.460764 -41.751 146 142 141
-61.16395 6.4291854 -41.962 147 146 144
-61.468903 6.460764 -42.134 146 142 139
-61.468903 6.460764 -42.325 145 139 137
-61.468903 6.460764 -42.517 143 140 137
-61.468903 6.460764 -42.708 142 139 138
-61.468903 6.460764 -42.9 147 140 134
-61.468903 6.460764 -43.091 151 150 148
-61.468903 6.460764 -43.283 155 154 152
-61.773853 6.4923425 -43.454 165 164 164
-61.773853 6.4923425 -43.645 167 166 165
-61.773853 6.4923425 -43.837 168 167 167
-62.078136 6.524842 -44.007 174 173 173
-62.078136 6.524842 -44.198 173 173 173
-62.381496 6.556672 -44.369 177 177 178
-62.381496 6.556672 -44.56 177 177 178
-62.68578 6.5891714 -44.73 179 179 180
-62.68578 6.5891714 -44.921 179 180 180
-62.98914 6.6210017 -45.091 181 181 181
-62.98914 6.6210017 -45.282 182 181 181
-63.292503 6.652832 -45.451 182 181 181
-63.594944 6.6839933 -45.621 180 180 180
-63.594944 6.6839933 -45.811 178 177 178
-63.594944 6.6839933 -46.002 176 175 177
-63.898304 6.715823 -46.171 176 175 177
-64.20007 6.7479057 -46.34 178 179 181
-64.20007 6.7479057 -46.531 179 180 182
-64.20007 6.7479057 -46.722 180 181 183
-64.50252 6.7790666 -46.89 182 183 183
-64.80428 6.8111486 -47.058 184 183 184
-64.80428 6.8111486 -47.249 185 184 184
-64.80428 6.8111486 -47.439 186 185 184
-65.10606 6.8432307 -47.607 183 182 182
-65.406906 6.874644 -47.775 183 182 182
-65.406906 6.874644 -47.966 183 182 182
-65.406906 6.874644 -48.156 181 180 180
-65.707756 6.906057 -48.323 181 180 180
-66.008606 6.93747 -48.491 181 181 181
-66.008606 6.93747 -48.681 182 182 180
-66.008606 6.93747 -48.871 182 182 180
-66.308784 6.969804 -49.038 186 185 185
-66.308784 6.969804 -49.228 186 186 186
-66.609634 7.001217 -49.395 183 182 182
-66.609634 7.001217 -49.585 183 183 183
-66.609634 7.001217 -49.775 184 184 186
-66.9089 7.0328817 -49.941 178 179 183
-67.208824 7.0636253 -50.107 176 175 175
-67.208824 7.0636253 -50.297 175 175 175
-67.208824 7.0636253 -50.487 179 175 176
-67.208824 7.0636253 -50.677 181 178 179
-67.208824 7.0636253 -50.867 182 181 183
-67.50809 7.09529 -51.032 184 183 183
-67.50809 7.09529 -51.222 185 185 187
-67.50809 7.09529 -51.412 187 187 189
-67.80642 7.126286 -51.577 187 188 191
-67.80642 7.126286 -51.767 188 188 189
-67.80642 7.126286 -51.956 188 188 188
-67.80642 7.126286 -52.146 189 189 189
-68.10568 7.157951 -52.311 191 192 192
-68.10568 7.157951 -52.501 192 193 194
-68.10568 7.157951 -52.69 194 195 195
-68.40335 7.1898675 -52.855 194 194 194
-68.40335 7.1898675 -53.044 194 193 193
-68.70169 7.220863 -53.209 192 191 191
-68.70169 7.220863 -53.398 193 192 192
-68.70169 7.220863 -53.587 192 192 192
-68.70169 7.220863 -53.777 190 190 190
-69.00003 7.2518587 -53.941 186 187 186
-69.00003 7.2518587 -54.13 184 184 182
-69.00003 7.2518587 -54.319 180 180 178
-69.00003 7.2518587 -54.508 179 180 178
-69.2977 7.2837753 -54.672 181 182 182
-69.2977 7.2837753 -54.861 181 182 182
-69.2977 7.2837753 -55.05 180 180 180
-69.594444 7.315023 -55.214 173 172 172
-69.594444 7.315023 -55.403 172 168 167
-69.594444 7.315023 -55.592 168 168 167
-69.8912 7.3462706 -55.755 169 171 171
-69.8912 7.3462706 -55.944 176 179 178
-69.8912 7.3462706 -56.133 178 182 181
-70.18794 7.3775177 -56.295 183 184 184
-70.18794 7.3775177 -56.484 180 181 181
-70.18794 7.3775177 -56.673 177 176 176
-70.18794 7.3775177 -56.862 172 171 171
-70.48469 7.4087653 -57.024 157 153 153
-70.48469 7.4087653 -57.213 158 152 151
-70.48469 7.4087653 -57.402 158 156 154
-70.48469 7.4087653 -57.591 162 160 156
-70.48469 7.4087653 -57.779 164 163 157
-70.48469 7.4087653 -57.968 162 160 156
-70.78052 7.4393435 -58.13 156 154 150
-70.78052 7.4393435 -58.318 152 149 146
-70.78052 7.4393435 -58.507 147 146 145
-70.78052 7.4393435 -58.696 143 141 141
-70.78052 7.4393435 -58.885 138 134 135
-70.78052 7.4393435 -59.073 134 130 131
-71.07726 7.470591 -59.234 124 123 123
-71.07726 7.470591 -59.423 122 122 121
-71.07726 7.470591 -59.612 122 122 120
-71.07726 7.470591 -59.8 125 122 120
-71.37242 7.5020905 -59.961 130 129 129
-71.37242 7.5020905 -60.149 134 133 131
-71.37242 7.5020905 -60.338 139 138 137
-71.37242 7.5020905 -60.526 144 143 143
-71.37242 7.5020905 -60.715 148 148 148
-71.37242 7.5020905 -60.904 151 151 151
-71.66825 7.532669 -61.064 154 153 153
-71.66825 7.532669 -61.252 152 151 152
-71.66825 7.532669 -61.44 151 151 151
-71.66825 7.532669 -61.629 155 151 150
-71.66825 7.532669 -61.817 157 155 155
-71.66825 7.532669 -62.006 159 159 160
-71.66825 7.532669 -62.194 163 164 164
-71.66825 7.532669 -62.383 169 169 170
-71.66825 7.532669 -62.571 173 174 174
-71.96249 7.563499 -62.73 178 179 181
-71.96249 7.563499 -62.919 181 181 183
-72.257645 7.5949984 -63.078 180 180 181
-72.257645 7.5949984 -63.266 178 179 180
-72.257645 7.5949984 -63.454 175 176 178
-72.55188 7.6258287 -63.613 172 172 174
-72.84612 7.6566586 -63.771 172 172 176
-72.84612 7.6566586 -63.959 171 171 175
-72.84612 7.6566586 -64.147 172 172 176
-73.14036 7.687489 -64.305 163 163 165
-73.14036 7.687489 -64.493 160 159 161
-73.14036 7.687489 -64.681 153 153 155
-73.14036 7.687489 -64.869 150 149 151
-73.14036 7.687489 -65.057 147 146 148
-73.14036 7.687489 -65.246 145 146 147
-73.14036 7.687489 -65.434 148 149 149
-73.14036 7.687489 -65.622 155 155 155
-73.14036 7.687489 -65.81 160 161 163
-73.43367 7.71765 -65.967 171 172 174
-73.43367 7.71765 -66.155 175 175 178
-73.43367 7.71765 -66.343 178 179 182
-73.43367 7.71765 -66.531 183 182 184
-73.43367 7.71765 -66.719 183 184 185
-73.43367 7.71765 -66.906 181 181 183
-73.43367 7.71765 -67.094 176 176 177
-73.72724 7.749401 -67.251 166 166 166
-73.43367 7.71765 -67.47 143 142 142
-73.43367 7.71765 -67.658 120 117 114
-73.43367 7.71765 -67.846 72 65 62
-73.14036 7.687489 -68.066 7 6 5
-28.1963 2.0710962 -11.485 141 142 145
-31.56251 2.317364 -13.633 165 169 172
-31.897638 2.3427668 -13.827 164 167 173
-32.231827 2.3675299 -14.02 164 167 175
-43.085598 3.1638942 -21.478 144 139 139
-43.40905 3.188246 -21.665 144 138 137
-45.02162 3.306805 -22.987 150 153 155
-45.664124 3.3538902 -23.554 154 154 156
-46.305687 3.4003356 -23.923 153 153 155
-46.94661 3.4477227 -24.291 156 156 158
-47.58501 3.4947712 -24.659 154 155 155
-48.222466 3.5411801 -25.222 158 154 155
-48.859283 3.5885308 -25.783 155 149 152
-50.128513 3.6816134 -25.928 149 145 146
-49.49422 3.6346014 -26.344 154 153 153
-50.761868 3.7279859 -26.487 147 152 154
-50.44504 3.7040088 -27.28 151 152 154
-50.761868 3.7279859 -27.656 151 151 153
-51.392696 3.77402 -28.213 145 146 148
-52.33783 3.8436928 -29.144 157 158 161
-52.652775 3.8663898 -29.518 160 160 162
-52.96708 3.8900285 -29.698 161 160 160
-52.96708 3.8900285 -29.892 165 162 162
-53.28044 3.9130273 -30.072 164 160 163
-53.593803 3.936026 -30.445 167 161 165
-53.593803 3.936026 -30.639 168 162 166
-53.907166 3.9590247 -30.818 166 162 164
-54.22053 3.9820235 -30.997 165 160 162
-54.22053 3.9820235 -31.19 167 162 165
-54.53295 4.0043826 -31.369 166 162 164
-54.84473 4.027683 -31.548 166 162 163
-54.84473 4.027683 -31.741 170 166 167
-54.84473 4.027683 -31.935 172 171 172
-55.157154 4.0500417 -32.113 173 169 170
-55.468933 4.0733423 -32.291 169 168 168
-55.468933 4.0733423 -32.484 173 169 170
-55.468933 4.0733423 -32.677 176 170 174
-55.780716 4.0966425 -32.855 171 169 172
-56.091553 4.119303 -33.032 171 165 167
-56.091553 4.119303 -33.226 174 168 170
-56.091553 4.119303 -33.419 179 173 175
-56.713234 4.164624 -33.58 173 169 170
-56.713234 4.164624 -33.773 178 172 174
-56.713234 4.164624 -33.966 182 177 178
-57.02343 4.188226 -34.142 180 177 178
-57.33333 4.210247 -34.319 181 178 179
-57.33333 4.210247 -34.511 183 182 182
-57.642586 4.233209 -34.688 183 182 182
-57.642586 4.233209 -34.88 185 184 184
-57.952484 4.25523 -35.056 182 181 181
-57.952484 4.25523 -35.249 182 181 182
-58.26174 4.278192 -35.425 180 179 180
-58.570057 4.300514 -35.6 180 179 181
-58.570057 4.300514 -35.792 180 179 181
-58.570057 4.300514 -35.985 180 179 181
-58.570057 4.300514 -36.177 180 178 179
-58.878677 4.324418 -36.352 182 178 179
-58.878677 4.324418 -36.545 179 175 176
-59.186993 4.3467407 -36.72 176 172 173
-59.186993 4.3467407 -36.912 174 170 171
-59.494366 4.368423 -37.086 170 167 168
-59.494366 4.368423 -37.278 170 168 169
-59.802044 4.391687 -37.453 168 167 168
-59.802044 4.391687 -37.645 168 167 167
-60.108776 4.414311 -37.819 167 166 166
-60.108776 4.414311 -38.011 166 166 167
-60.108776 4.414311 -38.203 166 164 165
-60.417095 4.436633 -38.376 166 164 166
-60.722885 4.458617 -38.55 166 165 165
-60.722885 4.458617 -38.742 170 170 170
-61.02962 4.481241 -38.915 170 169 169
-61.02962 4.481241 -39.107 173 169 169
-61.335716 4.504807 -39.28 170 162 163
-61.335716 4.504807 -39.471 171 162 162
-61.64151 4.526791 -39.644 166 157 158
-61.64151 4.526791 -39.836 162 156 156
-61.9473 4.548775 -40.008 158 152 152
-61.9473 4.548775 -40.199 157 155 155
-61.9473 4.548775 -40.391 163 162 161
-62.252453 4.5717006 -40.563 161 162 162
-62.252453 4.5717006 -40.754 164 164 164
-62.252453 4.5717006 -40.946 164 165 165
-62.556667 4.5939865 -41.117 166 165 165
-62.556667 4.5939865 -41.309 166 165 165
-62.86182 4.6169124 -41.48 163 162 162
-63.16603 4.639198 -41.652 159 158 158
-63.16603 4.639198 -41.843 160 158 158
-63.16603 4.639198 -42.034 160 159 159
-63.47024 4.661484 -42.205 156 155 154
-63.47024 4.661484 -42.396 155 154 152
-63.77351 4.68313 -42.567 152 151 151
-63.77351 4.68313 -42.757 152 151 151
-64.07772 4.7054152 -42.928 152 151 151
-64.07772 4.7054152 -43.119 153 150 150
-65.28888 4.7948236 -43.799 167 165 165
-65.28888 4.7948236 -43.989 168 165 166
-64.683624 4.7496486 -44.222 164 158 161
-64.683624 4.7496486 -44.412 163 158 161
-64.683624 4.7496486 -44.603 163 157 160
-64.683624 4.7496486 -44.793 164 161 163
-64.683624 4.7496486 -44.984 165 165 165
-64.683624 4.7496486 -45.175 167 167 167
-64.683624 4.7496486 -45.365 168 168 168
-64.98625 4.772236 -45.534 174 175 178
-64.98625 4.772236 -45.725 175 178 181
-64.98625 4.772236 -45.915 178 182 185
-65.28888 4.7948236 -46.084 187 189 191
-65.59057 4.816771 -46.253 191 192 194
-65.59057 4.816771 -46.443 194 194 196
-66.19395 4.8606663 -46.589 192 193 194
-66.19395 4.8606663 -46.779 193 194 196
-66.19395 4.8606663 -46.969 195 196 197
-66.19395 4.8606663 -47.16 198 199 199
-66.796684 4.905503 -47.305 193 194 195
-66.796684 4.905503 -47.495 194 195 196
-67.09679 4.927752 -47.663 193 194 194
-66.796684 4.905503 -47.875 195 196 196
-66.796684 4.905503 -48.065 194 198 197
-66.796684 4.905503 -48.255 195 196 196
-67.09679 4.927752 -48.422 195 198 197
-67.39754 4.9490595 -48.589 199 199 199
-67.39754 4.9490595 -48.779 203 199 198
-67.39754 4.9490595 -48.969 203 202 202
-67.69764 4.9713087 -49.135 203 202 202
-67.9968 4.992918 -49.302 197 196 196
-67.9968 4.992918 -49.491 196 196 197
-67.9968 4.992918 -49.681 196 196 197
-67.9968 4.992918 -49.871 195 195 195
-68.29691 5.015167 -50.037 193 193 193
-68.29691 5.015167 -50.226 192 191 192
-68.595436 5.0377183 -50.392 195 195 195
-68.595436 5.0377183 -50.581 193 194 194
-68.595436 5.0377183 -50.771 190 194 193
-68.8946 5.0593276 -50.936 193 196 195
-68.8946 5.0593276 -51.126 191 194 193
-69.19377 5.080937 -51.291 190 190 190
-69.19377 5.080937 -51.48 187 187 188
-69.19377 5.080937 -51.669 184 185 186
-69.492294 5.103488 -51.834 179 179 180
-69.492294 5.103488 -52.024 176 176 175
-69.492294 5.103488 -52.213 171 171 169
-69.492294 5.103488 -52.402 169 168 164
-69.492294 5.103488 -52.591 169 168 165
-69.492294 5.103488 -52.78 171 171 171
-69.78988 5.125399 -52.945 178 177 177
-69.78988 5.125399 -53.134 180 179 179
-69.78988 5.125399 -53.323 181 180 179
-69.78988 5.125399 -53.512 182 181 179
-70.087456 5.14731 -53.676 186 183 182
-70.087456 5.14731 -53.865 187 182 183
-70.38504 5.169221 -54.028 190 184 186
-70.38504 5.169221 -54.217 187 182 183
-70.38504 5.169221 -54.406 185 179 181
-70.682625 5.191132 -54.569 185 181 184
-70.682625 5.191132 -54.758 183 181 182
-70.97927 5.212403 -54.921 180 179 179
-70.97927 5.212403 -55.11 177 176 176
-71.27685 5.234314 -55.273 167 163 161
-71.27685 5.234314 -55.461 166 160 155
-71.27685 5.234314 -55.65 163 159 152
-71.57285 5.2565265 -56.001 149 148 146
-71.57285 5.2565265 -56.19 152 151 151
-71.57285 5.2565265 -56.378 152 152 145
-71.57285 5.2565265 -56.567 154 151 143
-71.86949 5.2777977 -56.729 150 151 147
-71.86949 5.2777977 -56.917 154 152 147
-72.16455 5.2993703 -57.079 167 166 164
-72.16455 5.2993703 -57.267 171 170 168
-72.16455 5.2993703 -57.456 172 171 171
-72.460556 5.3215833 -57.617 183 179 180
-72.460556 5.3215833 -57.805 185 184 186
-72.460556 5.3215833 -57.994 186 184 186
-72.755615 5.343156 -58.155 174 169 170
-72.755615 5.343156 -58.343 164 157 158
-72.755615 5.343156 -58.531 154 143 143
-73.050674 5.364729 -58.692 148 143 142
-73.050674 5.364729 -58.88 150 149 147
-73.050674 5.364729 -59.068 152 151 149
-73.050674 5.364729 -59.256 155 153 152
-73.050674 5.364729 -59.444 157 155 154
-73.050674 5.364729 -59.633 162 159 158
-73.050674 5.364729 -59.821 166 164 160
-73.34573 5.3863015 -59.981 164 164 161
-73.34573 5.3863015 -60.169 164 164 162
-73.639854 5.407234 -60.329 158 156 153
-73.639854 5.407234 -60.517 147 145 141
-73.639854 5.407234 -60.704 141 138 136
-73.639854 5.407234 -60.892 145 143 142
-73.93427 5.4297485 -61.052 145 144 144
-73.93427 5.4297485 -61.24 153 153 153
-73.93427 5.4297485 -61.428 158 158 158
-73.93427 5.4297485 -61.615 161 159 159
-73.93427 5.4297485 -61.803 163 158 159
-73.93427 5.4297485 -61.991 160 158 159
-73.93427 5.4297485 -62.179 159 158 158
-73.93427 5.4297485 -62.367 161 158 157
-73.93427 5.4297485 -62.555 160 159 157
-73.93427 5.4297485 -62.743 159 159 157
-73.93427 5.4297485 -62.93 158 159 157
-74.22839 5.4506817 -63.089 165 168 171
-74.22839 5.4506817 -63.277 168 167 167
-74.22839 5.4506817 -63.464 165 165 165
-74.52187 5.472556 -63.622 173 173 173
-74.81535 5.4944305 -63.78 180 180 180
-75.10789 5.515665 -63.938 178 179 179
-74.81535 5.4944305 -64.156 169 169 171
-74.81535 5.4944305 -64.343 168 167 169
-75.10789 5.515665 -64.501 173 174 178
-75.40137 5.5375395 -64.658 179 179 181
-75.40137 5.5375395 -64.845 178 179 181
-75.40137 5.5375395 -65.033 176 180 183
-75.40137 5.5375395 -65.22 174 175 178
-75.6939 5.558774 -65.377 170 170 171
-75.6939 5.558774 -65.565 165 165 165
-75.98644 5.5800085 -65.721 154 151 152
-75.6939 5.558774 -66.127 146 146 150
-75.98644 5.5800085 -66.47 144 143 142
-30.947943 1.2976232 -12.242 155 155 155
-30.947943 1.2976232 -12.844 167 168 170
-32.95954 1.3808715 -13.206 144 144 148
-32.290287 1.3539355 -13.619 173 174 176
-32.625698 1.3672279 -13.813 172 172 176
-32.95954 1.3808715 -14.006 164 168 171
-33.62757 1.4097302 -14.392 162 162 166
-34.29368 1.4373686 -14.577 160 160 162
-44.780785 1.8764789 -21.623 146 142 143
-45.103275 1.8910099 -22.005 139 138 140
-46.389645 1.9441609 -22.158 150 150 150
-47.671303 1.9983656 -23.876 152 152 156
-49.58396 2.0781567 -24.392 149 148 148
-50.85392 2.1316774 -25.319 146 145 145
-51.48588 2.157874 -25.878 145 145 147
-52.117847 2.1840706 -26.436 149 148 151
-53.690994 2.2506616 -29.087 151 152 156
-53.690994 2.2506616 -29.281 153 154 158
-54.004925 2.263806 -29.461 158 159 163
-54.004925 2.263806 -29.655 161 161 165
-54.318855 2.2769506 -29.834 165 165 167
-54.318855 2.2769506 -30.028 169 168 170
-54.318855 2.2769506 -30.222 171 170 171
-54.944183 2.302981 -30.58 169 168 168
-54.944183 2.302981 -30.773 172 169 170
-55.56951 2.329011 -31.131 173 169 170
-55.56951 2.329011 -31.324 176 172 173
-55.88187 2.3425066 -31.502 176 172 173
-56.193268 2.3553922 -31.68 177 173 174
-56.193268 2.3553922 -31.873 177 176 176
-56.193268 2.3553922 -32.067 179 178 178
-56.193268 2.3553922 -32.26 179 179 179
-56.504665 2.368278 -32.437 179 179 179
-56.816063 2.3811636 -32.615 180 179 179
-56.816063 2.3811636 -32.808 181 180 180
-57.12685 2.3950105 -32.985 182 181 181
-57.747112 2.420523 -33.146 180 176 177
-57.437286 2.4072862 -33.355 182 181 182
-57.437286 2.4072862 -33.547 182 181 181
-57.747112 2.420523 -33.724 180 179 179
-57.747112 2.420523 -33.917 180 179 179
-58.05755 2.4327986 -34.093 179 178 178
-58.05755 2.4327986 -34.286 178 177 177
-58.67624 2.4586623 -34.445 177 180 183
-58.67624 2.4586623 -34.638 178 178 182
-58.98546 2.4728606 -34.814 180 180 182
-58.67624 2.4586623 -35.023 173 172 173
-59.294323 2.4854875 -35.182 177 176 176
-58.98546 2.4728606 -35.391 169 167 168
-59.602226 2.4975042 -35.549 173 170 171
-59.294323 2.4854875 -35.758 175 171 172
-59.602226 2.4975042 -35.933 176 173 173
-59.91048 2.5110922 -36.108 175 174 172
-60.217773 2.5240703 -36.283 174 173 172
-60.217773 2.5240703 -36.475 173 172 171
-60.217773 2.5240703 -36.667 174 173 171
-60.832973 2.549065 -36.824 174 171 171
-60.526638 2.5366971 -37.033 177 173 173
-60.832973 2.549065 -37.207 177 173 172
-60.832973 2.549065 -37.399 180 175 175
-61.140266 2.5620432 -37.573 181 178 177
-61.140266 2.5620432 -37.765 183 182 180
-61.44695 2.5759826 -37.938 180 179 179
-61.44695 2.5759826 -38.13 180 179 179
-61.75328 2.5883508 -38.303 176 175 175
-62.059616 2.6007187 -38.477 172 172 172
-62.059616 2.6007187 -38.668 173 173 173
-62.059616 2.6007187 -38.859 175 174 174
-62.059616 2.6007187 -39.051 172 171 171
-62.365337 2.614048 -39.224 172 172 172
-62.670097 2.6267672 -39.396 172 173 173
-62.670097 2.6267672 -39.588 174 174 175
-62.670097 2.6267672 -39.779 175 174 175
-62.670097 2.6267672 -39.97 174 174 175
-62.975822 2.6400967 -40.142 169 169 169
-63.280582 2.6528158 -40.314 164 163 161
-63.585342 2.6655352 -40.486 158 157 155
-63.280582 2.6528158 -40.696 159 158 156
-63.585342 2.6655352 -40.868 155 154 152
-63.889145 2.6776443 -41.039 156 155 155
-63.889145 2.6776443 -41.23 156 155 155
-63.889145 2.6776443 -41.421 159 158 158
-64.1939 2.6903636 -41.592 161 160 160
-64.49709 2.703434 -41.763 165 159 159
-64.800896 2.7155433 -41.934 164 160 159
-64.49709 2.703434 -42.145 170 166 165
-64.800896 2.7155433 -42.315 167 165 165
-65.10409 2.7286139 -42.486 163 157 157
-65.10409 2.7286139 -42.676 163 157 156
-65.10409 2.7286139 -42.867 161 154 153
-65.40727 2.7416842 -43.037 157 148 149
-65.40727 2.7416842 -43.228 157 149 151
-65.7095 2.7541447 -43.397 155 151 152
-65.7095 2.7541447 -43.588 154 152 152
-65.7095 2.7541447 -43.778 154 151 152
-65.7095 2.7541447 -43.968 153 152 152
-66.011734 2.7666051 -44.138 151 150 149
-66.011734 2.7666051 -44.328 149 148 146
-66.31396 2.7790656 -44.497 149 148 148
-66.31396 2.7790656 -44.688 148 148 147
-66.31396 2.7790656 -44.878 150 149 148
-66.31396 2.7790656 -45.068 152 151 150
-66.31396 2.7790656 -45.258 154 153 151
-66.31396 2.7790656 -45.448 158 155 154
-66.61558 2.7924874 -45.617 164 160 160
-66.61558 2.7924874 -45.807 165 161 161
-66.31396 2.7790656 -46.019 164 160 161
-66.31396 2.7790656 -46.209 164 162 162
-66.61558 2.7924874 -46.377 179 179 179
-66.91781 2.8049479 -46.545 191 191 191
-66.91781 2.8049479 -46.735 193 193 195
-67.21847 2.8177595 -46.903 200 200 200
-67.21847 2.8177595 -47.093 200 201 201
-67.51973 2.8296099 -47.26 203 203 201
-67.51973 2.8296099 -47.45 202 203 202
-67.82039 2.8424215 -47.618 202 203 203
-67.82039 2.8424215 -47.807 202 203 203
-68.12009 2.8546233 -47.974 201 201 201
-68.12009 2.8546233 -48.164 198 198 198
-68.12009 2.8546233 -48.354 196 196 196
-68.420746 2.867435 -48.52 192 191 191
-68.420746 2.867435 -48.71 189 188 188
-68.719826 2.8805978 -48.876 187 183 184
-68.719826 2.8805978 -49.066 185 181 182
-68.719826 2.8805978 -49.255 183 179 180
-69.01952 2.8927994 -49.422 181 180 180
-69.01952 2.8927994 -49.611 181 181 181
-69.31922 2.9050012 -49.777 185 186 186
-69.31922 2.9050012 -49.966 188 188 186
-69.61831 2.918164 -50.132 186 187 187
-69.916435 2.9307168 -50.297 185 185 183
-69.916435 2.9307168 -50.486 182 182 182
-69.916435 2.9307168 -50.675 182 181 181
-70.214554 2.9432697 -50.841 179 178 178
-70.51268 2.9558227 -51.006 176 175 175
-70.51268 2.9558227 -51.195 176 176 176
-70.51268 2.9558227 -51.384 177 177 177
-70.51268 2.9558227 -51.572 179 180 179
-70.81081 2.9683754 -51.737 183 183 183
-71.10797 2.9803183 -51.902 183 184 184
-71.10797 2.9803183 -52.09 182 182 182
-71.10797 2.9803183 -52.279 179 179 181
-71.10797 2.9803183 -52.468 176 175 179
-71.10797 2.9803183 -52.656 174 172 175
-71.4061 2.9928713 -52.82 173 171 172
-71.4061 2.9928713 -53.009 172 171 171
-71.4061 2.9928713 -53.198 173 173 173
-71.4061 2.9928713 -53.386 174 174 174
-71.4061 2.9928713 -53.575 176 177 177
-71.4061 2.9928713 -53.764 178 179 179
-71.702644 3.0057752 -53.927 180 181 181
-71.702644 3.0057752 -54.116 182 182 182
-71.99981 3.017718 -54.279 183 183 183
-71.99981 3.017718 -54.467 182 183 183
-71.99981 3.017718 -54.656 184 184 184
-72.2954 3.0300121 -54.818 187 187 187
-72.2954 3.0300121 -55.007 186 187 191
-72.59196 3.0429163 -55.169 189 188 189
-72.59196 3.0429163 -55.358 187 188 188
-72.59196 3.0429163 -55.546 186 186 186
-72.59196 3.0429163 -55.734 183 184 184
-72.88755 3.0552104 -55.896 176 180 179
-72.88755 3.0552104 -56.085 177 177 177
-73.18314 3.0675044 -56.246 165 164 162
-73.47873 3.0797985 -56.596 152 148 147
-73.47873 3.0797985 -56.784 150 144 144
-73.47873 3.0797985 -56.972 150 146 147
-73.47873 3.0797985 -57.16 153 153 151
-73.77336 3.0914824 -57.322 156 156 154
-73.77336 3.0914824 -57.51 159 159 157
-73.77336 3.0914824 -57.697 162 161 159
-73.77336 3.0914824 -57.885 164 164 163
-74.068344 3.1047378 -58.046 172 172 172
-74.068344 3.1047378 -58.234 176 175 176
-74.362976 3.1164217 -58.395 174 168 169
-74.362976 3.1164217 -58.582 165 160 160
-74.362976 3.1164217 -58.77 152 148 148
-74.362976 3.1164217 -58.958 137 136 134
-74.657 3.1290672 -59.118 131 128 126
-74.657 3.1290672 -59.306 140 136 134
-74.95102 3.1417124 -59.466 150 147 144
-74.95102 3.1417124 -59.653 155 155 153
-74.95102 3.1417124 -59.841 157 159 162
-74.95102 3.1417124 -60.029 154 154 156
-74.95102 3.1417124 -60.216 148 148 151
-74.95102 3.1417124 -60.404 145 140 143
-74.95102 3.1417124 -60.591 144 137 136
-75.24408 3.1537476 -60.751 142 137 135
-75.5381 3.1663928 -60.91 135 133 134
-75.5381 3.1663928 -61.097 136 135 134
-75.5381 3.1663928 -61.285 143 142 140
-75.5381 3.1663928 -61.472 147 147 145
-75.83116 3.1784282 -61.631 146 146 144
-75.83116 3.1784282 -61.818 145 145 143
-75.83116 3.1784282 -62.005 146 146 145
-75.83116 3.1784282 -62.193 151 150 150
-75.83116 3.1784282 -62.38 154 153 153
-76.124214 3.1904633 -62.725 153 152 152
-76.124214 3.1904633 -62.913 152 151 151
-76.124214 3.1904633 -63.1 148 147 147
-76.124214 3.1904633 -63.287 148 147 145
-76.416664 3.20346 -63.445 154 150 147
-76.416664 3.20346 -63.632 157 153 150
-76.70876 3.214885 -63.79 158 154 151
-76.70876 3.214885 -63.977 157 153 152
-76.70876 3.214885 -64.164 153 152 151
-77.00025 3.2272716 -64.321 158 158 159
-77.00025 3.2272716 -64.508 159 160 160
-77.2927 3.240268 -64.665 164 165 167
-77.2927 3.240268 -64.852 167 168 170
-77.2927 3.240268 -65.039 171 172 174
-77.2927 3.240268 -65.225 175 175 177
-77.58384 3.2510834 -65.382 173 173 174
-77.87533 3.2634697 -65.538 162 162 165
-77.87533 3.2634697 -65.725 156 156 161
-77.87533 3.2634697 -65.912 151 151 156
-77.87533 3.2634697 -66.098 146 146 148
-77.87533 3.2634697 -66.285 138 137 138
-77.87533 3.2634697 -66.472 130 125 126
-77.87533 3.2634697 -66.659 122 114 114
-30.97343 0.32488453 -12.442 159 162 163
-31.310074 0.32821444 -12.637 162 162 164
-31.645737 0.33096477 -12.831 165 165 167
-31.9818 0.3352746 -13.025 166 166 169
-32.98665 0.344906 -13.406 164 165 167
-33.321156 0.34961626 -13.599 165 166 168
-48.349663 0.5062787 -22.68 150 149 149
-49.62477 0.5196614 -24.002 163 162 164
-49.94306 0.52271736 -24.185 163 162 162
-49.94306 0.52271736 -24.381 170 166 167
-50.26077 0.52675325 -24.564 168 164 165
-50.578075 0.5292296 -24.747 161 159 159
-50.578075 0.5292296 -24.941 170 169 169
-50.895782 0.5332655 -25.124 155 154 154
-51.21251 0.53672177 -25.307 148 148 150
-51.21251 0.53672177 -25.501 147 148 150
-51.844986 0.5430549 -25.671 151 152 152
-51.844986 0.5430549 -25.866 153 152 152
-52.475903 0.5497884 -26.035 156 155 155
-52.475903 0.5497884 -26.229 160 159 159
-54.04938 0.5663535 -26.36 147 146 147
-53.421005 0.55979913 -26.579 155 154 153
-53.735195 0.5630763 -26.954 155 154 155
-54.04938 0.5663535 -27.135 152 152 154
-54.36357 0.5696307 -27.51 150 151 154
-54.67678 0.5723283 -27.884 145 145 146
-55.615246 0.5823812 -29.004 159 156 156
-55.615246 0.5823812 -29.197 161 158 158
-55.615246 0.5823812 -29.39 163 162 162
-55.615246 0.5823812 -29.584 169 168 169
-55.615246 0.5823812 -29.777 173 172 173
-55.615246 0.5823812 -29.97 178 177 177
-55.927876 0.5860588 -30.149 179 176 177
-56.239525 0.58915687 -30.328 178 177 177
-56.239525 0.58915687 -30.521 180 179 179
-56.239525 0.58915687 -30.714 184 183 183
-56.55117 0.59225494 -30.893 183 181 182
-56.86282 0.595353 -31.071 183 179 180
-56.86282 0.595353 -31.264 185 181 182
-57.17389 0.599431 -31.442 183 180 182
-57.17389 0.599431 -31.635 186 183 184
-57.794647 0.605448 -31.797 181 179 180
-57.48456 0.6019495 -32.005 184 180 181
-57.794647 0.605448 -32.182 183 179 180
-57.794647 0.605448 -32.375 181 178 179
-58.415405 0.611465 -32.537 181 177 178
-58.105316 0.6079665 -32.745 179 175 176
-58.105316 0.6079665 -32.938 178 172 174
-58.724514 0.6143839 -33.098 176 172 173
-59.034027 0.61886233 -33.275 176 173 174
-59.034027 0.61886233 -33.467 177 173 174
-58.724514 0.6143839 -33.676 177 173 174
-59.034027 0.61886233 -33.852 176 174 175
-59.343136 0.62178123 -34.028 176 175 175
-59.651264 0.62412065 -34.204 175 174 174
-59.651264 0.62412065 -34.396 175 174 174
-59.651264 0.62412065 -34.588 175 174 175
-60.267345 0.63133883 -34.747 173 172 173
-60.267345 0.63133883 -34.939 174 171 171
-60.267345 0.63133883 -35.131 173 171 171
-60.267345 0.63133883 -35.323 175 172 173
-60.576454 0.6342578 -35.498 176 173 173
-60.576454 0.6342578 -35.69 176 174 175
-60.883022 0.6369976 -35.865 176 174 175
-60.883022 0.6369976 -36.057 178 176 177
-61.19057 0.6403169 -36.231 178 177 177
-61.497543 0.6446162 -36.406 176 175 175
-61.80411 0.64735603 -36.58 175 175 175
-62.110683 0.6500958 -36.754 175 175 175
-61.80411 0.64735603 -36.963 180 177 178
-62.110683 0.6500958 -37.137 181 180 180
-62.110683 0.6500958 -37.328 184 182 182
-62.110683 0.6500958 -37.519 186 184 184
-62.721684 0.6569558 -37.675 182 181 181
-62.721684 0.6569558 -37.866 185 182 183
-62.721684 0.6569558 -38.058 186 185 185
-63.02767 0.6606755 -38.231 186 185 185
-63.332684 0.66381574 -38.404 185 184 186
-63.332684 0.66381574 -38.595 185 186 186
-63.332684 0.66381574 -38.786 187 187 187
-63.332684 0.66381574 -38.977 187 187 187
-63.941727 0.66951656 -39.131 182 182 180
-63.941727 0.66951656 -39.322 183 182 180
-63.941727 0.66951656 -39.512 183 182 181
-63.941727 0.66951656 -39.703 186 185 185
-63.941727 0.66951656 -39.894 188 187 187
-64.246735 0.6726568 -40.066 186 185 185
-64.550186 0.6761974 -40.238 182 181 181
-64.550186 0.6761974 -40.428 181 181 181
-64.550186 0.6761974 -40.619 182 181 181
-64.85422 0.678758 -40.791 179 178 178
-65.46112 0.6858393 -40.942 172 171 171
-65.15767 0.68229866 -41.152 174 173 173
-65.15767 0.68229866 -41.343 174 173 173
-65.46112 0.6858393 -41.514 170 169 169
-65.76359 0.68880033 -41.684 170 164 164
-65.76359 0.68880033 -41.875 170 164 164
-65.76359 0.68880033 -42.065 172 168 167
-65.76359 0.68880033 -42.255 172 171 169
-66.06606 0.69176143 -42.426 173 172 171
-66.36853 0.69472253 -42.596 173 172 172
-66.36853 0.69472253 -42.786 173 173 173
-66.36853 0.69472253 -42.976 172 172 172
-66.670425 0.69866353 -43.146 168 168 168
-66.97289 0.70162463 -43.315 166 165 165
-66.97289 0.70162463 -43.505 164 164 164
-66.97289 0.70162463 -43.695 161 162 162
-67.2738 0.7049861 -43.865 159 159 158
-67.575294 0.7073676 -44.034 156 156 154
-67.575294 0.7073676 -44.224 154 154 153
-67.575294 0.7073676 -44.413 154 154 154
-67.575294 0.7073676 -44.603 154 154 154
-67.876205 0.7107291 -44.772 151 151 149
-68.17614 0.71351105 -44.94 149 147 142
-68.17614 0.71351105 -45.13 152 149 143
-68.17614 0.71351105 -45.32 152 148 142
-68.17614 0.71351105 -45.509 150 145 142
-68.17614 0.71351105 -45.699 149 143 141
-68.17614 0.71351105 -45.889 149 143 141
-68.47705 0.7168725 -46.056 151 144 141
-68.47705 0.7168725 -46.246 153 148 147
-68.47705 0.7168725 -46.436 155 151 151
-68.47705 0.7168725 -46.625 158 156 154
-68.47705 0.7168725 -46.815 161 158 156
-68.47705 0.7168725 -47.004 165 162 158
-68.7764 0.7206344 -47.171 172 171 171
-68.7764 0.7206344 -47.361 174 173 173
-68.7764 0.7206344 -47.55 176 175 175
-69.07633 0.7234164 -47.717 184 184 186
-69.37627 0.7261983 -47.884 189 190 194
-69.37627 0.7261983 -48.073 191 192 195
-69.37627 0.7261983 -48.263 194 195 198
-69.67561 0.7299602 -48.429 193 193 195
-69.97399 0.73314255 -48.595 194 193 193
-69.97399 0.73314255 -48.785 194 194 194
-70.27236 0.7363249 -48.951 193 192 192
-70.57073 0.73950726 -49.117 190 190 190
-70.57073 0.73950726 -49.306 192 191 191
-70.8691 0.7426896 -49.471 188 188 188
-71.1665 0.7452924 -49.637 185 184 184
-71.1665 0.7452924 -49.825 184 184 184
-71.1665 0.7452924 -50.014 184 183 183
-71.46487 0.7484748 -50.179 181 180 180
-71.76168 0.75205755 -50.344 182 182 182
-71.76168 0.75205755 -50.533 187 187 187
-72.059074 0.7546603 -50.698 186 186 186
-72.059074 0.7546603 -50.886 189 189 188
-72.354904 0.75766355 -51.051 186 186 186
-72.354904 0.75766355 -51.239 186 187 187
-72.354904 0.75766355 -51.428 186 187 187
-72.65172 0.7612463 -51.592 182 183 183
-72.65172 0.7612463 -51.78 182 183 183
-72.65172 0.7612463 -51.968 184 184 184
-72.94755 0.7642495 -52.132 184 185 185
-72.94755 0.7642495 -52.321 182 183 183
-73.243385 0.76725274 -52.484 177 178 178
-73.243385 0.76725274 -52.672 176 176 176
-73.539215 0.770256 -52.836 169 169 169
-73.539215 0.770256 -53.024 167 167 167
-73.539215 0.770256 -53.212 168 168 169
-73.539215 0.770256 -53.4 171 171 173
-73.539215 0.770256 -53.588 174 174 176
-73.539215 0.770256 -53.776 177 177 179
-73.83407 0.7726796 -53.939 176 176 177
-73.83407 0.7726796 -54.127 179 178 179
-73.83407 0.7726796 -54.315 178 178 180
-73.83407 0.7726796 -54.502 176 176 177
-74.12932 0.7766628 -54.665 175 174 174
-74.12932 0.7766628 -54.853 170 169 169
-74.42417 0.7790865 -55.015 169 168 169
-74.42417 0.7790865 -55.203 165 165 165
-74.42417 0.7790865 -55.39 163 164 163
-74.42417 0.7790865 -55.578 163 164 164
-74.42417 0.7790865 -55.766 165 166 166
-74.718445 0.78249013 -55.928 178 178 178
-75.01272 0.78589374 -56.089 174 174 174
-75.01272 0.78589374 -56.277 170 169 169
-75.30601 0.7887178 -56.438 163 162 162
-75.30601 0.7887178 -56.626 159 153 153
-75.60028 0.79212147 -56.787 147 142 139
-76.47958 0.8015737 -56.895 149 145 142
-75.89358 0.79494554 -57.135 136 131 126
-75.89358 0.79494554 -57.322 136 131 126
-75.89358 0.79494554 -57.509 139 132 128
-75.89358 0.79494554 -57.697 142 136 134
-77.06363 0.8070427 -57.777 166 166 166
-76.18687 0.7977696 -58.044 153 153 152
-76.18687 0.7977696 -58.232 157 158 158
-76.18687 0.7977696 -58.419 159 159 159
-76.18687 0.7977696 -58.606 158 157 155
-76.47958 0.8015737 -58.766 153 152 151
-76.7719 0.8038182 -58.926 151 142 136
-76.7719 0.8038182 -59.113 146 140 134
-76.7719 0.8038182 -59.3 141 139 134
-76.7719 0.8038182 -59.487 140 138 134
-76.7719 0.8038182 -59.674 141 138 135
-77.06363 0.8070427 -59.833 141 140 136
-77.06363 0.8070427 -60.02 143 142 138
-77.356346 0.81084675 -60.179 147 145 142
-77.356346 0.81084675 -60.366 145 145 144
-77.356346 0.81084675 -60.553 144 144 144
-77.356346 0.81084675 -60.74 143 142 142
-77.647675 0.81251174 -60.899 147 146 146
-77.647675 0.81251174 -61.085 144 144 144
-77.93941 0.81573623 -61.431 144 143 143
-77.93941 0.81573623 -61.617 139 140 140
-77.93941 0.81573623 -61.804 138 138 138
-77.93941 0.81573623 -61.991 140 139 137
-77.93941 0.81573623 -62.177 141 136 136
-78.23114 0.8189607 -62.335 142 134 133
-78.23114 0.8189607 -62.522 145 139 139
-78.23114 0.8189607 -62.708 147 144 144
-78.23114 0.8189607 -62.895 150 146 147
-78.23114 0.8189607 -63.082 151 150 150
-78.52132 0.82258564 -63.426 149 149 149
-78.52132 0.82258564 -63.612 152 151 151
-78.81207 0.8252306 -63.769 150 151 151
-80.26058 0.84063655 -64.18 159 160 160
-79.68219 0.83454585 -64.425 156 157 158
-79.97139 0.8375912 -64.582 159 159 159
-80.26058 0.84063655 -64.924 157 157 157
-80.26058 0.84063655 -65.11 153 154 154
-80.549774 0.84368193 -65.266 149 150 153
-31.976551 -0.66946346 -12.424 161 160 160
-32.311584 -0.67626023 -12.818 160 160 164
-52.78296 -1.1058333 -25.44 160 156 160
-53.726368 -1.1250647 -26.373 161 160 160
-54.354637 -1.1382514 -26.735 163 162 162
-54.667778 -1.1453933 -26.915 165 164 163
-54.980366 -1.1515373 -27.096 164 163 163
-55.293507 -1.1586791 -27.276 164 163 163
-55.918686 -1.1709673 -27.83 164 162 163
-56.853462 -1.1910452 -27.983 145 144 144
-56.230278 -1.17766 -28.203 164 163 164
-56.230278 -1.17766 -28.396 173 172 174
-56.230278 -1.17766 -28.589 179 178 179
-56.230278 -1.17766 -28.783 176 175 175
-56.54187 -1.1843525 -28.962 169 169 170
-56.230278 -1.17766 -29.169 171 171 175
-56.230278 -1.17766 -29.362 170 173 176
-56.54187 -1.1843525 -29.541 170 173 176
-56.54187 -1.1843525 -29.734 175 177 179
-56.853462 -1.1910452 -29.913 179 180 181
-57.164505 -1.19674 -30.091 179 180 181
-56.853462 -1.1910452 -30.299 183 184 186
-57.164505 -1.19674 -30.477 184 184 184
-57.164505 -1.19674 -30.67 186 186 187
-57.4751 -1.2039812 -30.848 185 185 185
-57.4751 -1.2039812 -31.041 187 186 186
-57.4751 -1.2039812 -31.234 187 186 186
-57.4751 -1.2039812 -31.427 186 186 186
-57.78515 -1.2102245 -31.604 185 184 185
-58.09574 -1.2174656 -31.782 183 183 183
-58.09574 -1.2174656 -31.974 183 182 182
-58.40579 -1.223709 -32.152 183 182 182
-58.40579 -1.223709 -32.344 182 181 181
-59.024334 -1.2357466 -32.506 178 177 177
-58.714836 -1.2305008 -32.714 181 180 180
-59.024334 -1.2357466 -32.89 179 177 177
-59.641434 -1.2498788 -33.051 174 173 174
-59.641434 -1.2498788 -33.243 175 173 175
-59.641434 -1.2498788 -33.435 177 176 176
-59.949932 -1.255673 -33.611 176 172 173
-59.949932 -1.255673 -33.804 177 173 174
-60.257435 -1.2620157 -33.979 175 173 174
-60.257435 -1.2620157 -34.171 176 175 175
-60.566486 -1.2688075 -34.347 175 175 175
-60.566486 -1.2688075 -34.539 175 176 178
-60.87299 -1.2756987 -34.714 176 174 175
-60.87299 -1.2756987 -34.906 178 174 175
-61.180492 -1.2820414 -35.081 178 174 175
-61.487446 -1.2873864 -35.256 179 173 176
-61.487446 -1.2873864 -35.448 181 175 178
-61.487446 -1.2873864 -35.639 183 177 179
-61.79395 -1.2942775 -35.814 181 175 179
-62.100456 -1.3011687 -35.988 181 175 177
-62.100456 -1.3011687 -36.18 183 177 179
-62.40641 -1.3070621 -36.354 180 175 177
-62.71137 -1.3135041 -36.528 179 175 176
-62.40641 -1.3070621 -36.736 182 177 178
-62.71137 -1.3135041 -36.91 181 179 179
-62.71137 -1.3135041 -37.101 182 181 180
-63.322285 -1.3258395 -37.257 184 182 182
-63.017326 -1.3193976 -37.466 188 187 187
-63.322285 -1.3258395 -37.639 191 188 189
-63.322285 -1.3258395 -37.83 194 190 191
-63.931202 -1.3392719 -37.985 191 186 188
-63.627243 -1.3322815 -38.194 197 193 194
-63.931202 -1.3392719 -38.367 194 191 192
-63.931202 -1.3392719 -38.558 195 194 195
-63.931202 -1.3392719 -38.749 195 194 195
-64.23616 -1.3457139 -38.921 195 194 194
-64.23616 -1.3457139 -39.112 194 194 194
-64.84354 -1.358697 -39.266 190 189 189
-64.84354 -1.358697 -39.456 190 189 189
-64.84354 -1.358697 -39.647 191 190 190
-64.84354 -1.358697 -39.837 192 192 192
-65.14695 -1.3646898 -40.009 190 190 190
-65.14695 -1.3646898 -40.2 190 190 192
-65.14695 -1.3646898 -40.39 190 190 192
-65.14695 -1.3646898 -40.581 193 192 194
-65.75278 -1.3772237 -40.733 188 187 189
-65.75278 -1.3772237 -40.923 188 187 189
-65.75278 -1.3772237 -41.113 188 187 189
-65.75278 -1.3772237 -41.304 187 186 188
-66.357605 -1.3903062 -41.455 180 180 182
-66.357605 -1.3903062 -41.645 178 178 180
-66.357605 -1.3903062 -41.835 176 176 178
-66.357605 -1.3903062 -42.025 175 175 176
-66.357605 -1.3903062 -42.215 174 174 174
-66.357605 -1.3903062 -42.406 174 174 174
-66.96188 -1.402391 -42.556 169 169 167
-66.96188 -1.402391 -42.746 168 167 164
-66.96188 -1.402391 -42.936 166 165 161
-66.96188 -1.402391 -43.125 162 161 159
-66.96188 -1.402391 -43.315 161 160 156
-67.56417 -1.4155728 -43.464 160 159 157
-67.56417 -1.4155728 -43.654 156 155 155
-67.56417 -1.4155728 -43.844 157 156 154
-67.865036 -1.4216648 -44.013 161 160 158
-68.16491 -1.4283053 -44.182 162 161 161
-68.16491 -1.4283053 -44.372 162 161 161
-68.16491 -1.4283053 -44.561 161 160 159
-68.465775 -1.4343973 -44.73 162 159 158
-68.7651 -1.4400401 -44.898 159 158 156
-68.7651 -1.4400401 -45.088 159 158 156
-68.7651 -1.4400401 -45.277 159 158 156
-69.06497 -1.4466807 -45.445 158 156 154
-69.364845 -1.4533212 -45.613 156 153 151
-69.364845 -1.4533212 -45.802 156 154 152
-69.364845 -1.4533212 -45.991 155 154 152
-69.66416 -1.458964 -46.159 155 152 147
-69.66416 -1.458964 -46.348 154 151 148
-69.96249 -1.4651552 -46.705 156 152 150
-69.96249 -1.4651552 -46.894 158 154 154
-70.26081 -1.4713466 -47.25 164 163 163
-70.26081 -1.4713466 -47.439 166 165 165
-70.26081 -1.4713466 -47.628 168 165 166
-70.26081 -1.4713466 -47.817 167 166 166
-70.26081 -1.4713466 -48.006 169 167 167
-70.26081 -1.4713466 -48.195 169 168 167
-70.559135 -1.4775379 -48.361 175 174 174
-70.559135 -1.4775379 -48.55 174 173 173
-70.559135 -1.4775379 -48.739 176 175 175
-70.85746 -1.4837292 -48.905 184 183 183
-71.15479 -1.490469 -49.071 190 189 189
-71.45312 -1.4966604 -49.236 196 195 195
-71.74989 -1.5024024 -49.402 197 196 196
-71.74989 -1.5024024 -49.59 196 195 195
-72.04722 -1.5091422 -49.755 195 194 194
-72.04722 -1.5091422 -49.944 193 192 192
-72.343 -1.5154328 -50.109 187 185 185
-72.63978 -1.5211749 -50.274 186 184 183
-72.63978 -1.5211749 -50.462 190 189 187
-72.93556 -1.5274655 -50.627 193 192 190
-72.93556 -1.5274655 -50.815 197 196 194
-73.23134 -1.533756 -50.979 196 196 195
-73.23134 -1.533756 -51.167 195 196 195
-73.23134 -1.533756 -51.355 196 196 196
-73.52712 -1.5400467 -51.52 193 192 192
-73.82191 -1.5468857 -51.683 187 186 186
-73.82191 -1.5468857 -51.871 186 185 184
-74.117134 -1.5521786 -52.035 182 181 179
-74.117134 -1.5521786 -52.223 181 181 179
-74.117134 -1.5521786 -52.411 182 182 180
-74.41192 -1.5590177 -52.574 181 181 181
-74.41192 -1.5590177 -52.762 181 181 181
-74.41192 -1.5590177 -52.95 181 181 181
-74.706154 -1.564859 -53.112 179 179 179
-74.706154 -1.564859 -53.3 177 177 177
-74.706154 -1.564859 -53.488 175 175 175
-75.00039 -1.5707004 -53.651 171 171 171
-75.00039 -1.5707004 -53.838 171 171 170
-75.00039 -1.5707004 -54.026 168 168 168
-75.00039 -1.5707004 -54.213 166 166 164
-75.00039 -1.5707004 -54.401 164 161 159
-75.293625 -1.5770903 -54.563 157 156 153
-75.293625 -1.5770903 -54.751 153 152 150
-75.58786 -1.5829318 -54.912 152 152 151
-75.58786 -1.5829318 -55.1 149 149 149
-75.881096 -1.5893216 -55.262 152 152 152
-75.881096 -1.5893216 -55.449 152 152 152
-76.17433 -1.5957115 -55.61 152 152 152
-76.17433 -1.5957115 -55.798 146 146 146
-76.17433 -1.5957115 -55.985 150 150 150
-76.17433 -1.5957115 -56.172 154 153 149
-76.467026 -1.6011037 -56.333 160 156 153
-76.75926 -1.608042 -56.494 153 149 148
-76.75926 -1.608042 -56.681 146 142 140
-76.75926 -1.608042 -56.868 141 131 128
-77.05096 -1.6139827 -57.029 139 131 127
-77.34364 -1.6193748 -57.376 137 132 131
-77.34364 -1.6193748 -57.563 139 138 138
-78.21826 -1.6387429 -57.669 147 148 148
-77.63488 -1.6268617 -57.91 145 144 144
-77.63488 -1.6268617 -58.097 146 145 145
-77.926575 -1.6328022 -58.443 144 144 143
-78.21826 -1.6387429 -58.603 142 140 140
-78.21826 -1.6387429 -58.789 137 132 133
-78.7991 -1.6507236 -59.667 129 129 128
-78.7991 -1.6507236 -59.853 137 136 136
-79.379944 -1.6627041 -60.916 142 142 142
-79.66909 -1.6687441 -61.446 143 142 142
-80.24738 -1.680824 -61.575 136 130 129
-79.95824 -1.6747841 -61.976 142 137 138
-79.95824 -1.6747841 -62.162 142 141 142
-79.95824 -1.6747841 -62.348 146 145 145
-80.24738 -1.680824 -62.506 145 145 145
-83.412186 -1.7468613 -66.446 129 124 125
-83.412186 -1.7468613 -66.631 132 125 126
-83.412186 -1.7468613 -66.817 129 123 123
-83.12613 -1.7417198 -67.032 118 110 108
-83.12613 -1.7417198 -67.218 95 88 87
-83.12613 -1.7417198 -67.403 60 54 54
-83.412186 -1.7468613 -67.557 38 23 22
-39.88648 -2.0903065 -15.644 157 156 156
-50.5115 -2.6476383 -20.07 205 204 204
-50.5115 -2.6476383 -20.265 210 210 210
-50.5115 -2.6476383 -20.46 205 205 205
-50.5115 -2.6476383 -20.655 194 193 193
-50.828835 -2.6635594 -20.839 195 195 195
-51.145157 -2.6799974 -21.024 178 177 178
-52.092087 -2.7303452 -22.937 171 170 170
-54.604824 -2.8619845 -24.592 181 182 183
-55.229828 -2.8949184 -25.342 187 191 190
-55.54207 -2.9108782 -25.717 181 181 181
-55.854313 -2.926838 -26.091 178 177 178
-55.854313 -2.926838 -26.284 180 179 179
-56.16554 -2.9433146 -26.465 176 175 175
-56.16554 -2.9433146 -26.658 181 180 180
-56.47677 -2.9597912 -26.838 181 180 180
-56.788 -2.9762678 -27.018 182 181 182
-56.788 -2.9762678 -27.211 186 185 187
-56.788 -2.9762678 -27.404 185 184 186
-56.788 -2.9762678 -27.597 184 183 183
-56.788 -2.9762678 -27.79 185 185 185
-57.09871 -2.99173 -27.97 187 187 188
-57.09871 -2.99173 -28.163 187 187 187
-57.408924 -3.0087235 -28.342 188 187 188
-57.408924 -3.0087235 -28.535 188 187 189
-57.408924 -3.0087235 -28.727 189 189 189
-57.408924 -3.0087235 -28.92 193 189 188
-57.71862 -3.0247028 -29.099 194 191 191
-57.71862 -3.0247028 -29.292 191 189 190
-58.028835 -3.0416963 -29.47 186 187 188
-58.028835 -3.0416963 -29.663 184 185 185
-58.028835 -3.0416963 -29.856 183 183 183
-58.028835 -3.0416963 -30.048 182 182 182
-58.028835 -3.0416963 -30.241 184 183 183
-58.028835 -3.0416963 -30.433 186 185 185
-58.33853 -3.0576754 -30.611 185 184 184
-58.956394 -3.089136 -30.775 183 181 180
-58.647213 -3.0741713 -30.982 183 182 182
-58.956394 -3.089136 -31.159 182 180 181
-58.956394 -3.089136 -31.352 182 180 181
-59.265076 -3.1056318 -31.529 183 179 178
-59.265076 -3.1056318 -31.721 183 181 181
-59.572746 -3.122645 -31.898 182 180 181
-59.88091 -3.1381264 -32.075 182 181 181
-60.18806 -3.1541247 -32.252 182 181 181
-60.18806 -3.1541247 -32.444 184 184 184
-60.496746 -3.1706207 -32.62 183 182 182
-60.802883 -3.187136 -32.796 182 181 181
-60.496746 -3.1706207 -33.004 184 183 181
-61.11003 -3.2031345 -33.164 183 182 182
-61.11003 -3.2031345 -33.356 182 181 181
-60.802883 -3.187136 -33.563 181 181 181
-61.416668 -3.2181184 -33.723 183 180 181
-61.722805 -3.2346337 -33.899 184 182 182
-61.722805 -3.2346337 -34.09 185 182 183
-61.722805 -3.2346337 -34.282 185 184 184
-62.33456 -3.26665 -34.44 188 185 186
-62.33456 -3.26665 -34.632 188 187 187
-62.33456 -3.26665 -34.823 189 188 188
-62.639168 -3.2826676 -34.998 191 189 189
-62.639168 -3.2826676 -35.189 193 192 192
-62.944786 -3.2981687 -35.363 193 191 192
-63.249393 -3.3141863 -35.538 193 189 190
-62.944786 -3.2981687 -35.746 197 193 194
-63.249393 -3.3141863 -35.92 196 192 193
-63.553997 -3.330204 -36.094 195 190 191
-63.249393 -3.3141863 -36.302 198 192 194
-63.553997 -3.330204 -36.476 195 189 191
-63.85759 -3.3467386 -36.649 194 189 190
-64.16219 -3.3627565 -36.823 194 188 190
-63.85759 -3.3467386 -37.031 198 192 194
-63.85759 -3.3467386 -37.222 199 193 195
-64.46527 -3.3782766 -37.377 196 190 190
-64.76886 -3.3948112 -37.55 195 191 190
-64.76886 -3.3948112 -37.741 198 193 192
-64.76886 -3.3948112 -37.931 199 194 194
-65.07194 -3.4103315 -38.104 198 194 193
-65.07194 -3.4103315 -38.294 198 196 195
-65.37501 -3.4258516 -38.467 197 196 195
-65.37501 -3.4258516 -38.657 196 195 195
-65.37501 -3.4258516 -38.848 197 193 194
-65.67707 -3.4418888 -39.02 198 194 195
-65.67707 -3.4418888 -39.21 198 194 195
-65.979126 -3.4579258 -39.382 199 195 196
-65.67707 -3.4418888 -39.591 198 197 197
-65.979126 -3.4579258 -39.762 203 200 201
-66.58273 -3.4889855 -39.915 197 196 196
-66.28119 -3.4739628 -40.124 198 197 197
-66.884796 -3.5050225 -40.276 194 193 193
-66.58273 -3.4889855 -40.485 194 193 193
-66.884796 -3.5050225 -40.656 189 188 188
-66.884796 -3.5050225 -40.846 187 186 186
-66.884796 -3.5050225 -41.036 185 185 185
-67.18532 -3.5205622 -41.206 183 182 182
-67.48637 -3.537116 -41.377 181 181 181
-67.48637 -3.537116 -41.566 179 179 179
-67.48637 -3.537116 -41.756 175 175 175
-67.786896 -3.5526557 -41.926 173 172 171
-68.08641 -3.568712 -42.096 172 171 171
-68.38694 -3.5842516 -42.266 168 168 168
-68.08641 -3.568712 -42.475 168 168 168
-68.08641 -3.568712 -42.665 167 167 167
-68.685936 -3.5992935 -42.814 161 160 161
-68.685936 -3.5992935 -43.004 162 162 163
-68.685936 -3.5992935 -43.193 164 164 165
-68.98545 -3.61535 -43.362 165 165 165
-69.284966 -3.6314063 -43.531 165 164 164
-69.284966 -3.6314063 -43.72 164 163 163
-69.284966 -3.6314063 -43.91 162 160 160
-69.284966 -3.6314063 -44.099 162 159 159
-69.58396 -3.6464484 -44.267 160 159 158
-69.88194 -3.662007 -44.436 159 158 158
-69.88194 -3.662007 -44.625 159 159 159
-69.88194 -3.662007 -44.814 160 160 159
-70.179924 -3.677566 -44.982 165 165 164
-70.47791 -3.693125 -45.149 167 167 166
-70.47791 -3.693125 -45.338 168 168 167
-70.47791 -3.693125 -45.527 168 168 168
-70.775894 -3.7086837 -45.695 167 168 168
-71.07286 -3.7247596 -45.862 169 169 168
-71.07286 -3.7247596 -46.051 169 169 165
-71.37084 -3.7403183 -46.218 167 167 164
-71.37084 -3.7403183 -46.407 165 165 158
-71.6673 -3.7553797 -46.573 158 157 148
-71.6673 -3.7553797 -46.762 159 157 149
-71.964264 -3.7714553 -46.928 151 151 150
-71.964264 -3.7714553 -47.117 155 155 152
-72.259705 -3.7870336 -47.283 151 151 149
-72.259705 -3.7870336 -47.472 154 153 149
-72.259705 -3.7870336 -47.66 159 155 152
-72.259705 -3.7870336 -47.848 160 156 153
-72.259705 -3.7870336 -48.037 164 159 154
-72.55615 -3.802095 -48.203 169 166 165
-72.55615 -3.802095 -48.391 173 168 167
-72.85159 -3.817673 -48.556 175 174 172
-72.85159 -3.817673 -48.745 177 173 172
-72.85159 -3.817673 -48.933 175 174 172
-73.147026 -3.8332512 -49.098 176 175 174
-73.147026 -3.8332512 -49.286 175 175 174
-73.44247 -3.8488295 -49.451 180 179 175
-73.44247 -3.8488295 -49.639 177 177 175
-73.44247 -3.8488295 -49.827 176 176 173
-73.44247 -3.8488295 -50.015 175 174 170
-73.73689 -3.8649244 -50.18 172 168 164
-74.62014 -3.9106638 -50.297 180 179 175
-73.73689 -3.8649244 -50.556 170 168 164
-74.03181 -3.8794882 -50.72 173 169 166
-74.03181 -3.8794882 -50.908 172 168 164
-74.32623 -3.8955834 -51.072 173 169 164
-74.62014 -3.9106638 -51.236 175 172 169
