ply
format ascii 1.0
element vertex 1226
property float x
property float y
property float z
property uchar red
property uchar green
property uchar blue
end_header
23.037703 13.911016 -40.581 129 128 128
16.850367 10.174054 -42.441 119 115 113
15.954549 9.633787 -42.71 155 146 145
15.35698 9.272464 -42.958 165 159 158
15.057616 9.09236 -43.184 140 138 136
14.757135 8.911095 -43.411 122 121 120
14.457793 8.729853 -43.638 108 103 103
14.157312 8.548588 -43.865 87 84 84
13.555236 8.184898 -44.115 116 112 113
13.253616 8.003611 -44.343 102 97 96
12.650424 7.6387606 -44.594 140 136 136
12.348827 7.456335 -44.822 125 113 115
11.743381 7.0903015 -45.074 137 126 130
11.4395075 6.9078317 -45.303 99 98 98
10.527955 6.357007 -45.579 128 124 125
9.919115 5.989768 -45.832 94 94 94
9.30916 5.6213684 -46.086 57 57 57
9.003055 5.4365773 -46.316 8 7 7
8.390845 5.0669947 -46.571 14 13 11
8.390845 5.0669947 -46.778 52 47 42
8.390845 5.0669947 -46.985 48 43 38
8.69695 5.2517858 -47.167 51 48 42
-1.2596695 -0.76764345 -3.786 171 170 170
-1.2596695 -0.76764345 -3.996 169 168 168
-0.94418305 -0.5757192 -4.204 164 163 163
-0.6298348 -0.38382173 -4.412 168 164 165
-0.31434828 -0.19189745 -4.62 169 166 168
0.6275852 0.38262987 -4.823 176 174 176
0.94196033 0.5733891 -5.03 180 179 181
0.94196033 0.5733891 -5.239 184 183 185
1.5684341 0.954854 -5.443 187 186 188
1.5684341 0.954854 -5.652 188 188 190
2.1926315 1.3362652 -5.856 187 186 188
2.1926315 1.3362652 -6.065 187 187 189
2.5047572 1.5258327 -6.271 185 184 185
2.8168826 1.7154001 -6.476 181 181 181
3.12787 1.9049406 -6.682 187 186 186
3.12787 1.9049406 -6.891 189 189 189
3.4388573 2.0944812 -7.096 196 196 198
3.7498448 2.2840219 -7.301 193 194 196
4.059694 2.4735355 -7.505 195 196 198
4.059694 2.4735355 -7.714 188 189 190
4.36957 2.6619112 -7.918 186 186 186
4.6794457 2.8502867 -8.122 184 184 185
4.9881835 3.0386355 -8.326 180 181 182
5.2980595 3.2270112 -8.53 183 183 184
5.6067977 3.4153597 -8.734 187 187 187
5.9143972 3.6036818 -8.937 190 189 190
5.9143972 3.6036818 -9.145 192 192 193
6.2231617 3.7908924 -9.348 190 189 189
6.2231617 3.7908924 -9.556 189 189 189
6.530788 3.978076 -9.758 188 188 188
6.8383875 4.166398 -9.961 188 188 188
6.8383875 4.166398 -10.168 188 188 188
7.144876 4.3535547 -10.37 187 187 187
7.4525294 4.5396004 -10.572 187 187 187
7.4525294 4.5396004 -10.78 186 186 186
7.4525294 4.5396004 -10.987 187 187 187
7.7590175 4.7267575 -11.188 194 191 191
7.7590175 4.7267575 -11.396 197 193 194
8.065533 4.912776 -11.597 197 195 198
8.065533 4.912776 -11.804 191 191 194
8.065533 4.912776 -12.011 187 187 190
8.370883 5.0999064 -12.212 188 188 192
8.676259 5.285898 -12.412 189 189 192
8.676259 5.285898 -12.619 191 191 195
9.287013 5.6578817 -13.02 193 193 195
9.287013 5.6578817 -13.226 198 198 199
9.591279 5.842709 -13.426 200 200 201
11.4122925 6.952701 -13.591 181 180 180
9.895517 6.028674 -13.832 204 203 203
9.895517 6.028674 -14.039 193 193 193
9.895517 6.028674 -14.245 189 189 189
10.199782 6.213501 -14.444 194 193 191
10.502911 6.3983006 -14.643 194 198 197
10.502911 6.3983006 -14.849 201 202 202
10.502911 6.3983006 -15.055 204 204 204
10.502911 6.3983006 -15.262 203 202 200
10.807176 6.583128 -15.46 204 203 203
11.110303 6.7679276 -15.658 201 200 200
11.110303 6.7679276 -15.864 207 206 206
11.110303 6.7679276 -16.07 209 208 208
11.110303 6.7679276 -16.276 209 209 209
11.4122925 6.952701 -16.474 213 213 214
11.715446 7.136363 -16.671 218 218 220
11.715446 7.136363 -16.877 218 218 220
12.017435 7.321136 -17.074 221 221 223
12.017435 7.321136 -17.28 221 221 221
12.319451 7.504771 -17.477 221 221 223
12.319451 7.504771 -17.682 221 221 223
12.319451 7.504771 -17.888 221 221 223
12.319451 7.504771 -18.093 221 221 223
12.620329 7.6883793 -18.29 220 220 222
12.921206 7.871988 -18.486 215 215 218
12.921206 7.871988 -18.691 211 212 216
12.921206 7.871988 -18.896 209 209 213
13.222084 8.055596 -19.092 207 207 210
13.522989 8.238066 -19.288 200 199 198
13.522989 8.238066 -19.493 195 194 194
13.522989 8.238066 -19.698 191 190 190
13.522989 8.238066 -19.903 184 183 183
13.823867 8.421674 -20.098 182 182 182
14.123633 8.604117 -20.293 190 191 192
14.123633 8.604117 -20.498 197 198 198
14.123633 8.604117 -20.703 205 206 206
14.4234 8.786561 -20.897 213 214 214
16.21525 9.877645 -21.038 209 210 212
14.722028 8.968977 -21.296 214 214 214
14.722028 8.968977 -21.501 211 212 212
14.722028 8.968977 -21.706 209 210 210
14.722028 8.968977 -21.91 208 209 210
15.021794 9.151421 -22.104 208 209 211
16.810284 10.240148 -22.241 209 209 212
15.320449 9.332699 -22.502 208 209 211
15.320449 9.332699 -22.706 211 212 214
15.320449 9.332699 -22.911 215 215 217
15.619078 9.515115 -23.104 216 216 218
15.619078 9.515115 -23.308 217 218 220
15.9165945 9.696366 -23.501 220 221 223
15.9165945 9.696366 -23.705 220 221 222
15.9165945 9.696366 -23.909 221 222 224
15.9165945 9.696366 -24.114 220 221 221
16.21525 9.877645 -24.306 218 218 219
16.21525 9.877645 -24.51 211 211 214
16.51274 10.060034 -24.702 212 211 211
16.51274 10.060034 -24.906 209 209 209
16.51274 10.060034 -25.11 207 207 207
16.810284 10.240148 -25.301 211 207 205
17.10666 10.421371 -25.492 213 209 210
17.10666 10.421371 -25.696 210 211 213
17.10666 10.421371 -25.9 216 216 216
17.10666 10.421371 -26.104 220 220 220
17.40304 10.602596 -26.295 218 218 218
17.699446 10.782682 -26.485 216 216 216
17.699446 10.782682 -26.689 217 216 216
17.699446 10.782682 -26.893 217 216 216
17.699446 10.782682 -27.096 217 217 217
17.995852 10.962769 -27.286 220 220 221
17.995852 10.962769 -27.49 221 222 224
17.995852 10.962769 -27.694 222 223 225
17.995852 10.962769 -27.897 223 223 225
19.766344 12.041962 -28.016 227 227 228
17.995852 10.962769 -28.508 220 220 220
18.291119 11.142829 -28.697 218 218 218
18.291119 11.142829 -28.901 210 210 210
18.291119 11.142829 -29.104 202 202 202
20.05936 12.220829 -29.219 218 218 218
18.587524 11.322915 -29.496 209 208 208
18.587524 11.322915 -29.7 219 219 219
18.881653 11.502948 -29.888 216 215 215
18.881653 11.502948 -30.092 208 207 207
18.881653 11.502948 -30.295 202 201 201
18.881653 11.502948 -30.498 198 194 194
18.881653 11.502948 -30.702 193 189 188
18.881653 11.502948 -30.905 190 189 188
18.881653 11.502948 -31.108 189 188 188
18.881653 11.502948 -31.311 183 182 182
19.17692 11.683007 -31.702 175 172 174
19.17692 11.683007 -31.905 177 176 176
20.646534 12.578591 -32.028 199 198 196
19.471075 11.861901 -32.295 193 193 193
19.471075 11.861901 -32.499 189 190 190
19.471075 11.861901 -32.702 181 181 181
19.471075 11.861901 -32.905 170 170 170
19.766344 12.041962 -33.091 167 166 166
19.766344 12.041962 -33.294 174 174 174
20.05936 12.220829 -33.48 177 177 175
20.05936 12.220829 -33.683 177 178 178
20.05936 12.220829 -33.886 187 188 186
20.353518 12.399723 -34.072 201 202 202
20.646534 12.578591 -34.257 219 219 221
20.646534 12.578591 -34.46 223 223 225
20.646534 12.578591 -34.663 225 224 226
20.939579 12.756321 -34.848 226 225 225
20.939579 12.756321 -35.051 230 229 231
20.939579 12.756321 -35.253 236 236 236
20.939579 12.756321 -35.456 237 237 239
21.232597 12.935188 -35.64 240 241 243
20.939579 12.756321 -35.861 240 240 240
20.939579 12.756321 -36.064 211 210 210
20.939579 12.756321 -36.266 191 191 190
21.232597 12.935188 -36.451 212 207 202
21.232597 12.935188 -36.653 216 213 207
21.232597 12.935188 -36.856 219 216 211
20.939579 12.756321 -37.077 224 222 221
21.232597 12.935188 -37.261 221 220 220
21.232597 12.935188 -37.463 218 217 217
21.52564 13.112918 -37.647 221 221 221
21.52564 13.112918 -37.849 223 223 223
21.52564 13.112918 -38.051 219 219 219
21.52564 13.112918 -38.254 213 213 213
21.52564 13.112918 -38.456 201 201 201
21.81752 13.291759 -38.639 200 199 199
21.81752 13.291759 -38.841 217 217 217
21.81752 13.291759 -39.044 226 226 226
21.81752 13.291759 -39.246 228 228 228
21.81752 13.291759 -39.448 230 230 230
21.81752 13.291759 -39.651 232 232 232
22.109426 13.469461 -39.833 234 234 234
22.109426 13.469461 -40.035 238 237 237
22.109426 13.469461 -40.237 233 233 233
22.109426 13.469461 -40.44 209 209 208
22.982897 14.001378 -40.581 126 125 123
15.619078 9.515115 -42.936 151 146 143
15.320449 9.332699 -43.162 131 126 122
14.722028 8.968977 -43.411 149 144 141
14.123633 8.604117 -43.66 173 169 166
13.823867 8.421674 -43.888 159 156 153
13.522989 8.238066 -44.115 144 140 139
12.921206 7.871988 -44.366 169 165 166
12.620329 7.6883793 -44.594 155 150 150
12.319451 7.504771 -44.822 145 133 136
11.715446 7.136363 -45.074 154 148 150
11.110303 6.7679276 -45.326 161 160 161
10.502911 6.3983006 -45.579 141 140 140
9.895517 6.028674 -45.832 120 119 119
9.287013 5.6578817 -46.086 70 70 70
8.676259 5.285898 -46.34 19 19 19
8.676259 5.285898 -46.547 32 19 19
8.065533 4.912776 -46.802 53 45 41
8.370883 5.0999064 -46.985 55 50 45
8.981636 5.47189 -47.143 61 53 47
8.676259 5.285898 -47.374 56 51 44
-2.5200253 -1.5487704 -3.583 175 174 174
-1.5724825 -0.96691525 -3.788 174 171 172
-0.9419149 -0.57942253 -3.994 169 165 165
-0.62832266 -0.3862921 -4.202 165 161 162
0.31359228 0.1931304 -4.406 169 168 168
0.6260778 0.38509145 -4.613 169 169 169
0.9397014 0.57708377 -4.82 176 176 178
1.2521869 0.7690448 -5.027 181 180 182
1.5646724 0.96100587 -5.234 183 182 184
1.8760197 1.1529356 -5.44 185 184 186
2.1873672 1.3448653 -5.647 185 185 187
2.498746 1.535657 -5.853 187 186 187
2.8101246 1.7264487 -6.059 186 185 185
3.1203651 1.917209 -6.264 189 185 186
3.430606 2.1079695 -6.47 191 186 188
3.430606 2.1079695 -6.678 190 188 190
3.7408466 2.29873 -6.883 192 191 192
4.049949 2.4894588 -7.088 196 196 197
4.049949 2.4894588 -7.297 195 195 195
4.359083 2.67905 -7.501 197 196 198
5.2853465 3.2477915 -7.698 196 195 195
4.6682167 2.868641 -7.914 189 188 188
4.9762125 3.0582006 -8.118 188 187 187
5.2853465 3.2477915 -8.322 182 182 182
5.5933423 3.4373512 -8.526 183 183 186
5.9002 3.6268797 -8.729 187 187 188
6.208227 3.8153014 -8.932 185 184 185
6.5151157 4.0036917 -9.135 184 181 180
6.821974 4.19322 -9.338 179 179 179
6.821974 4.19322 -9.546 185 184 184
7.4346447 4.5688314 -9.743 186 183 184
7.4346447 4.5688314 -9.95 187 186 185
7.4346447 4.5688314 -10.158 187 188 187
7.4346447 4.5688314 -10.365 187 187 187
7.7403955 4.7571907 -10.567 188 188 188
7.7403955 4.7571907 -10.774 189 188 188
7.7403955 4.7571907 -10.981 189 188 188
7.7403955 4.7571907 -11.188 190 190 191
7.7403955 4.7571907 -11.396 196 196 198
8.350791 5.132739 -11.591 199 199 200
8.350791 5.132739 -11.798 192 192 194
8.350791 5.132739 -12.005 184 183 183
8.655435 5.3199286 -12.206 189 188 189
8.960079 5.5071187 -12.406 194 193 193
8.655435 5.3199286 -12.619 193 193 193
9.56826 5.8803287 -12.806 183 183 184
9.56826 5.8803287 -13.013 189 192 194
9.871766 6.067487 -13.213 194 195 195
9.871766 6.067487 -13.419 198 199 201
9.871766 6.067487 -13.626 200 201 203
10.175303 6.253507 -13.825 196 197 201
10.175303 6.253507 -14.031 191 191 193
10.477703 6.439496 -14.23 185 186 186
10.477703 6.439496 -14.437 192 193 193
10.78124 6.6255164 -14.635 199 200 200
10.78124 6.6255164 -14.842 200 201 201
11.687331 7.1823144 -15.025 204 204 206
11.08364 6.811506 -15.246 203 204 206
11.08364 6.811506 -15.452 204 204 206
11.384901 6.997463 -15.65 206 206 208
11.384901 6.997463 -15.856 207 206 206
11.384901 6.997463 -16.062 208 207 207
11.687331 7.1823144 -16.26 212 212 214
11.687331 7.1823144 -16.465 215 215 218
11.687331 7.1823144 -16.671 218 218 220
11.988593 7.368272 -16.868 218 218 222
11.988593 7.368272 -17.074 220 219 221
12.2898855 7.5530915 -17.271 219 219 221
12.2898855 7.5530915 -17.477 221 221 223
12.590039 7.7378798 -17.673 221 221 223
13.7906885 8.475895 -17.842 222 223 225
12.890194 7.9226685 -18.075 221 221 221
12.890194 7.9226685 -18.28 215 216 217
12.890194 7.9226685 -18.486 213 214 215
13.190349 8.107457 -18.682 208 210 211
13.190349 8.107457 -18.887 206 208 209
13.490534 8.291107 -19.082 204 203 203
13.7906885 8.475895 -19.278 199 198 198
13.7906885 8.475895 -19.483 195 195 195
13.490534 8.291107 -19.698 188 189 189
13.7906885 8.475895 -19.893 187 187 187
14.388783 8.843133 -20.078 189 189 189
14.388783 8.843133 -20.283 195 194 195
14.388783 8.843133 -20.487 201 200 201
14.089736 8.659514 -20.703 206 207 207
14.388783 8.843133 -20.897 212 213 213
14.686693 9.026721 -21.091 214 215 215
14.686693 9.026721 -21.296 213 214 214
14.686693 9.026721 -21.501 211 212 212
14.686693 9.026721 -21.706 209 210 210
14.686693 9.026721 -21.91 209 209 209
14.985741 9.21034 -22.104 209 209 209
15.283682 9.39279 -22.297 210 210 210
15.581592 9.576377 -22.49 211 210 210
15.581592 9.576377 -22.695 211 211 211
15.878394 9.758796 -22.888 212 212 212
15.878394 9.758796 -23.092 217 216 216
15.878394 9.758796 -23.296 218 218 219
16.176334 9.941245 -23.489 219 219 221
16.176334 9.941245 -23.693 219 220 222
15.878394 9.758796 -23.909 218 218 220
16.176334 9.941245 -24.101 217 217 218
16.473106 10.124802 -24.293 217 217 217
16.473106 10.124802 -24.498 215 215 215
16.473106 10.124802 -24.702 211 210 210
16.76994 10.306082 -24.893 211 210 210
16.473106 10.124802 -25.11 207 206 206
16.76994 10.306082 -25.301 210 208 208
17.065605 10.488469 -25.492 214 213 213
17.361269 10.6708555 -25.683 214 211 213
17.361269 10.6708555 -25.887 218 217 217
17.065605 10.488469 -26.104 219 219 219
17.656965 10.852105 -26.282 218 218 218
17.656965 10.852105 -26.485 216 217 219
17.656965 10.852105 -26.689 216 216 218
17.656965 10.852105 -26.893 217 217 219
17.656965 10.852105 -27.096 218 218 220
17.656965 10.852105 -27.3 218 218 220
17.656965 10.852105 -27.504 217 218 219
17.952662 11.033354 -27.694 222 222 222
17.952662 11.033354 -27.897 222 222 223
18.24722 11.214572 -28.087 227 227 227
17.952662 11.033354 -28.305 226 225 225
17.952662 11.033354 -28.508 220 219 219
17.952662 11.033354 -28.712 209 209 209
18.24722 11.214572 -28.901 205 204 204
18.542915 11.395821 -29.09 201 198 198
18.542915 11.395821 -29.293 194 192 193
18.24722 11.214572 -29.511 195 195 195
18.542915 11.395821 -29.7 214 216 215
18.542915 11.395821 -29.903 218 220 219
18.542915 11.395821 -30.107 214 215 215
18.836336 11.577007 -30.295 204 203 202
19.130894 11.7582245 -30.483 193 192 192
19.130894 11.7582245 -30.686 190 188 188
19.130894 11.7582245 -30.889 192 189 190
19.130894 11.7582245 -31.092 195 193 193
19.130894 11.7582245 -31.296 189 188 188
18.836336 11.577007 -31.515 180 179 179
19.130894 11.7582245 -31.702 172 171 171
19.130894 11.7582245 -31.905 178 178 178
19.130894 11.7582245 -32.109 188 187 187
19.130894 11.7582245 -32.312 197 196 196
19.424345 11.938272 -32.499 199 198 196
19.424345 11.938272 -32.702 183 182 182
19.718903 12.119491 -32.888 177 175 173
20.011215 12.299507 -33.075 176 174 172
20.304667 12.479556 -33.261 183 182 182
20.304667 12.479556 -33.463 179 179 179
20.59698 12.659573 -33.649 180 179 179
20.59698 12.659573 -33.852 181 180 180
20.59698 12.659573 -34.055 201 201 201
20.889324 12.838451 -34.24 223 221 221
20.889324 12.838451 -34.443 224 224 228
21.181637 13.018469 -34.628 225 224 225
21.181637 13.018469 -34.83 226 226 226
21.181637 13.018469 -35.033 230 230 232
21.473982 13.197348 -35.218 236 237 238
21.473982 13.197348 -35.42 237 238 239
21.473982 13.197348 -35.623 239 240 241
21.473982 13.197348 -35.825 241 241 241
21.473982 13.197348 -36.027 214 213 211
21.473982 13.197348 -36.23 192 191 190
22.347569 13.735028 -36.377 196 195 195
22.347569 13.735028 -36.579 205 201 197
22.347569 13.735028 -36.781 211 208 203
21.473982 13.197348 -37.039 220 219 214
21.473982 13.197348 -37.242 222 222 221
21.473982 13.197348 -37.444 221 220 219
21.765156 13.377334 -37.628 225 224 224
21.765156 13.377334 -37.83 225 224 225
22.056362 13.556181 -38.013 217 216 216
22.056362 13.556181 -38.215 212 210 210
22.056362 13.556181 -38.418 203 200 201
21.765156 13.377334 -38.639 197 196 196
21.765156 13.377334 -38.841 211 211 211
21.765156 13.377334 -39.044 223 224 223
22.056362 13.556181 -39.226 228 228 228
22.056362 13.556181 -39.429 231 231 231
22.056362 13.556181 -39.631 232 232 232
22.056362 13.556181 -39.833 234 234 234
22.347569 13.735028 -40.015 237 236 236
22.637669 13.912706 -40.197 225 224 223
22.637669 13.912706 -40.399 191 189 189
22.927736 14.091523 -40.581 131 130 130
15.581592 9.576377 -43.141 114 108 106
15.283682 9.39279 -43.367 92 87 85
14.985741 9.21034 -43.594 77 71 72
14.686693 9.026721 -43.821 66 60 61
14.089736 8.659514 -44.07 84 81 81
14.089736 8.659514 -44.275 55 51 51
13.490534 8.291107 -44.526 57 49 48
13.190349 8.107457 -44.754 53 39 42
12.2898855 7.5530915 -45.028 104 89 93
11.687331 7.1823144 -45.28 96 95 95
10.78124 6.6255164 -45.555 136 132 133
10.175303 6.253507 -45.808 108 104 105
9.56826 5.8803287 -46.062 63 62 62
9.264723 5.6943083 -46.292 8 8 8
8.960079 5.5071187 -46.523 22 18 15
8.655435 5.3199286 -46.754 58 50 42
8.655435 5.3199286 -46.961 58 49 39
8.350791 5.132739 -47.192 52 42 36
-0.62680084 -0.38875654 -3.782 169 168 168
0.31283143 0.19436039 -3.986 169 168 168
0.93742794 0.5807695 -4.191 171 170 172
-0.62680084 -0.38875654 -4.412 168 164 166
-0.31283143 -0.19436039 -4.62 164 162 162
0.31283143 0.19436039 -4.825 176 172 173
0.93742794 0.5807695 -5.03 180 179 179
0.93742794 0.5807695 -5.239 184 184 184
1.2491572 0.7739562 -5.446 188 187 188
1.5608864 0.9671429 -5.652 188 188 188
2.182069 1.3534447 -5.856 187 187 188
2.182069 1.3534447 -6.065 186 187 189
2.492696 1.5454577 -6.271 186 186 186
2.8033233 1.7374706 -6.476 185 185 185
3.1128123 1.9294479 -6.682 188 187 187
3.1128123 1.9294479 -6.891 187 188 188
3.4223015 2.1214252 -7.096 193 194 194
3.7317905 2.3134022 -7.301 194 195 195
3.7317905 2.3134022 -7.509 191 191 192
4.0401416 2.5053437 -7.714 189 190 190
4.348529 2.6961472 -7.918 186 186 185
4.6569157 2.8869507 -8.122 183 184 180
4.9641647 3.0777185 -8.326 183 183 182
4.9641647 3.0777185 -8.535 184 185 185
5.5798006 3.4592898 -8.734 188 188 188
5.5798006 3.4592898 -8.942 191 190 190
5.8859115 3.6500218 -9.145 191 190 189
6.1931963 3.8396516 -9.348 188 188 186
6.1931963 3.8396516 -9.556 188 189 188
6.4993434 4.0292454 -9.758 185 186 186
6.8054543 4.2199774 -9.961 184 185 185
6.8054543 4.2199774 -10.168 183 185 185
7.110463 4.409536 -10.37 182 182 182
7.416646 4.597992 -10.572 185 185 185
7.416646 4.597992 -10.78 186 186 186
7.416646 4.597992 -10.987 189 188 188
7.721655 4.78755 -11.188 194 193 193
7.721655 4.78755 -11.396 196 195 195
8.026699 4.9759703 -11.597 196 195 195
8.026699 4.9759703 -11.804 195 194 194
8.026699 4.9759703 -12.011 193 190 190
8.33057 5.165493 -12.212 189 187 187
8.634477 5.3538775 -12.412 192 192 190
8.634477 5.3538775 -12.619 193 194 190
8.938384 5.542262 -12.82 191 194 189
9.2422905 5.7306466 -13.02 191 194 193
9.2422905 5.7306466 -13.226 199 199 199
9.2422905 5.7306466 -13.433 200 201 201
11.357334 7.0421176 -13.591 179 179 177
9.847863 6.1062064 -13.832 205 206 206
9.847863 6.1062064 -14.039 190 191 191
9.847863 6.1062064 -14.245 188 188 188
9.847863 6.1062064 -14.452 196 196 196
10.452334 6.4805923 -14.643 193 194 194
10.452334 6.4805923 -14.849 200 201 201
10.452334 6.4805923 -15.055 201 202 202
10.755139 6.6678033 -15.254 201 202 202
10.755139 6.6678033 -15.46 201 201 201
11.056806 6.854978 -15.658 203 203 207
11.056806 6.854978 -15.864 203 202 204
11.056806 6.854978 -16.07 204 202 206
11.056806 6.854978 -16.276 208 204 207
11.357334 7.0421176 -16.474 211 208 212
11.659037 7.2281547 -16.671 224 223 227
11.659037 7.2281547 -16.877 222 221 225
11.659037 7.2281547 -17.083 220 219 221
11.959565 7.415294 -17.28 220 219 220
11.959565 7.415294 -17.485 221 221 222
12.26013 7.6012955 -17.682 222 222 226
12.26013 7.6012955 -17.888 221 222 225
12.559556 7.787261 -18.084 219 221 223
12.559556 7.787261 -18.29 217 221 224
12.559556 7.787261 -18.495 216 219 222
12.858982 7.973227 -18.691 213 213 216
12.858982 7.973227 -18.896 213 213 216
12.858982 7.973227 -19.102 210 211 212
14.949456 9.269117 -19.239 193 190 190
13.457871 8.34402 -19.493 193 192 192
13.457871 8.34402 -19.698 190 189 189
13.7572975 8.529985 -19.893 193 190 189
13.7572975 8.529985 -20.098 191 187 188
14.055622 8.714778 -20.293 195 190 195
14.055622 8.714778 -20.498 200 197 201
14.055622 8.714778 -20.703 206 205 208
14.353946 8.8995695 -20.897 212 212 214
14.353946 8.8995695 -21.102 214 213 215
16.13717 10.004693 -21.242 212 212 214
14.651133 9.084326 -21.501 213 212 214
14.651133 9.084326 -21.706 211 210 211
14.651133 9.084326 -21.91 209 209 210
14.651133 9.084326 -22.115 209 209 211
14.949456 9.269117 -22.309 210 210 213
15.246678 9.452736 -22.502 212 211 214
15.246678 9.452736 -22.706 213 212 216
15.246678 9.452736 -22.911 214 214 218
15.246678 9.452736 -23.115 216 216 220
15.543865 9.637492 -23.308 217 217 219
15.543865 9.637492 -23.513 219 219 220
15.839949 9.8210745 -23.705 220 219 221
15.839949 9.8210745 -23.909 219 218 218
15.839949 9.8210745 -24.114 217 216 216
15.839949 9.8210745 -24.318 212 212 212
16.13717 10.004693 -24.51 212 211 211
16.43322 10.189413 -24.702 211 210 210
16.43322 10.189413 -24.906 210 209 209
16.43322 10.189413 -25.11 206 206 206
16.43322 10.189413 -25.314 209 208 208
16.72934 10.371858 -25.505 211 211 213
17.024286 10.555405 -25.696 213 213 213
17.024286 10.555405 -25.9 216 217 217
17.024286 10.555405 -26.104 219 220 220
17.024286 10.555405 -26.308 217 218 220
17.319231 10.738951 -26.499 216 216 216
17.614214 10.92136 -26.893 215 215 215
17.614214 10.92136 -27.096 215 216 218
17.614214 10.92136 -27.3 215 216 218
17.614214 10.92136 -27.504 213 214 216
17.909195 11.103768 -27.694 216 217 219
17.909195 11.103768 -27.897 218 219 220
17.909195 11.103768 -28.101 224 223 223
19.671158 12.196833 -28.219 232 233 233
18.20304 11.286141 -28.494 227 226 226
18.20304 11.286141 -28.697 215 215 215
18.20304 11.286141 -28.901 200 199 199
18.20304 11.286141 -29.104 194 190 188
18.20304 11.286141 -29.308 192 189 189
18.498022 11.468551 -29.496 198 198 199
19.96276 12.377996 -29.625 206 207 212
19.96276 12.377996 -29.828 208 209 211
18.790728 11.6508875 -30.092 214 211 213
18.790728 11.6508875 -30.295 208 201 201
18.790728 11.6508875 -30.498 201 193 190
18.790728 11.6508875 -30.702 194 187 185
18.790728 11.6508875 -30.905 191 186 185
18.790728 11.6508875 -31.108 193 191 190
18.790728 11.6508875 -31.311 192 191 191
18.790728 11.6508875 -31.515 182 181 181
19.084572 11.833261 -31.702 173 171 169
20.547106 12.740359 -31.825 201 200 198
20.547106 12.740359 -32.028 198 197 194
19.377314 12.01446 -32.499 190 191 191
19.377314 12.01446 -32.702 180 179 179
19.377314 12.01446 -32.905 169 168 166
19.671158 12.196833 -33.091 171 171 169
19.671158 12.196833 -33.294 176 176 175
19.96276 12.377996 -33.48 183 180 177
19.96276 12.377996 -33.683 183 183 184
19.96276 12.377996 -33.886 194 194 194
20.255503 12.5591955 -34.072 208 209 210
20.547106 12.740359 -34.257 223 223 223
20.547106 12.740359 -34.46 223 223 225
20.547106 12.740359 -34.663 225 225 226
20.547106 12.740359 -34.866 229 229 231
20.838747 12.920384 -35.051 230 230 232
20.838747 12.920384 -35.253 234 235 236
20.838747 12.920384 -35.456 238 238 239
20.838747 12.920384 -35.658 241 241 242
20.838747 12.920384 -35.861 244 243 243
20.838747 12.920384 -36.064 216 215 215
20.838747 12.920384 -36.266 192 191 190
22.582859 14.001497 -36.561 206 203 199
20.838747 12.920384 -36.874 226 223 220
21.13035 13.101548 -37.058 225 224 222
20.838747 12.920384 -37.279 225 223 221
21.13035 13.101548 -37.463 217 216 214
21.42199 13.281573 -37.647 217 216 216
21.42199 13.281573 -37.849 220 220 220
21.42199 13.281573 -38.051 221 220 220
21.712456 13.462702 -38.235 212 210 211
21.712456 13.462702 -38.437 204 198 200
21.712456 13.462702 -38.639 196 193 194
21.712456 13.462702 -38.841 212 210 209
21.712456 13.462702 -39.044 225 222 221
21.712456 13.462702 -39.246 228 227 227
21.712456 13.462702 -39.448 233 232 232
21.712456 13.462702 -39.651 235 235 235
21.712456 13.462702 -39.853 237 237 237
21.712456 13.462702 -40.055 238 238 238
22.002956 13.642692 -40.237 237 236 236
22.002956 13.642692 -40.44 222 220 220
22.002956 13.642692 -40.642 188 184 184
9.847863 6.1062064 -45.832 152 148 149
9.2422905 5.7306466 -46.086 109 105 106
8.634477 5.3538775 -46.34 38 37 37
8.33057 5.165493 -46.571 22 11 11
8.026699 4.9759703 -46.802 56 32 29
8.938384 5.542262 -46.936 58 39 32
8.33057 5.165493 -47.192 53 41 38
-0.62526935 -0.39121497 -3.782 170 169 169
0.31206578 0.19558737 -3.986 170 166 167
0.623034 0.3899967 -4.194 167 167 168
0.93514 0.5844463 -4.401 175 171 172
-0.31206578 -0.19558737 -4.62 169 163 164
0.623034 0.3899967 -4.823 175 172 172
0.93514 0.5844463 -5.03 181 180 180
0.93514 0.5844463 -5.239 184 183 183
1.5570765 0.973265 -5.443 187 186 186
1.5570765 0.973265 -5.652 190 187 188
1.8669069 1.1676341 -5.859 189 188 189
2.1767373 1.3620032 -6.065 188 187 187
2.486608 1.5552346 -6.271 187 186 187
3.1052115 1.941657 -6.473 186 185 186
3.1052115 1.941657 -6.682 186 185 186
3.1052115 1.941657 -6.891 188 188 188
3.4139442 2.134848 -7.096 193 192 192
3.7226772 2.3280392 -7.301 194 194 195
3.7226772 2.3280392 -7.509 189 189 192
4.030272 2.52119 -7.714 186 186 190
4.3379073 2.713203 -7.918 184 184 186
4.3379073 2.713203 -8.127 182 180 181
4.6455426 2.9052162 -8.331 182 180 180
4.95204 3.097189 -8.535 185 184 186
5.2596755 3.289202 -8.738 190 190 192
5.566173 3.481175 -8.942 191 192 192
5.871533 3.6731074 -9.145 190 191 191
6.1780705 3.8639424 -9.348 188 188 188
6.1780705 3.8639424 -9.556 188 189 189
6.4834704 4.054737 -9.758 187 188 188
6.7888303 4.24667 -9.961 184 184 184
6.7888303 4.24667 -10.168 183 183 183
7.0930924 4.4374247 -10.37 184 185 185
7.3985324 4.6270814 -10.572 183 184 184
7.3985324 4.6270814 -10.78 181 182 182
7.3985324 4.6270814 -10.987 184 185 186
7.3985324 4.6270814 -11.194 191 191 191
7.7027946 4.8178363 -11.396 199 198 198
8.007097 5.007453 -11.597 199 199 199
8.007097 5.007453 -11.804 193 192 192
8.007097 5.007453 -12.011 185 184 184
8.310221 5.1981673 -12.212 189 189 189
8.613386 5.387744 -12.412 192 191 191
8.613386 5.387744 -12.619 192 193 194
9.219715 5.7668967 -12.813 185 186 186
9.219715 5.7668967 -13.02 193 194 194
9.219715 5.7668967 -13.226 201 200 200
9.219715 5.7668967 -13.433 203 202 202
9.521782 5.9552956 -13.633 203 202 202
9.823809 6.1448317 -13.832 200 201 201
9.823809 6.1448317 -14.039 195 196 198
9.823809 6.1448317 -14.245 194 195 197
10.125875 6.33323 -14.444 192 193 195
10.426805 6.5215883 -14.643 192 193 195
10.426805 6.5215883 -14.849 197 200 206
10.426805 6.5215883 -15.055 199 199 206
10.426805 6.5215883 -15.262 200 200 202
10.426805 6.5215883 -15.468 201 200 200
11.029801 6.8983455 -15.658 203 202 206
11.029801 6.8983455 -15.864 198 197 199
11.029801 6.8983455 -16.07 196 195 197
11.029801 6.8983455 -16.276 203 203 206
11.329593 7.0866632 -16.474 207 207 209
11.630562 7.273884 -16.671 214 215 219
11.630562 7.273884 -16.877 216 217 221
11.630562 7.273884 -17.083 217 218 222
11.630562 7.273884 -17.289 216 217 221
13.723694 8.583944 -17.432 219 220 222
12.230185 7.649382 -17.682 223 222 224
12.230185 7.649382 -17.888 223 222 224
12.230185 7.649382 -18.093 223 222 223
12.528879 7.836522 -18.29 221 221 221
12.528879 7.836522 -18.495 218 218 220
12.827573 8.023663 -18.691 215 214 214
12.827573 8.023663 -18.896 213 212 212
12.827573 8.023663 -19.102 210 209 209
13.1262665 8.210802 -19.297 204 204 204
13.425 8.396805 -19.493 198 197 197
13.425 8.396805 -19.698 193 192 192
13.425 8.396805 -19.903 192 190 190
13.723694 8.583944 -20.098 190 186 186
14.021291 8.769907 -20.293 194 191 192
14.021291 8.769907 -20.498 200 198 199
14.021291 8.769907 -20.703 208 206 206
14.021291 8.769907 -20.908 214 213 213
14.318887 8.955869 -21.102 214 213 213
14.615345 9.14179 -21.296 213 212 211
14.615345 9.14179 -21.501 211 210 210
14.615345 9.14179 -21.706 209 209 209
14.615345 9.14179 -21.91 210 209 209
14.615345 9.14179 -22.115 210 209 209
14.912942 9.327752 -22.309 209 209 210
15.20944 9.512536 -22.502 208 210 211
15.20944 9.512536 -22.706 211 212 212
15.20944 9.512536 -22.911 214 215 215
15.20944 9.512536 -23.115 216 216 216
15.20944 9.512536 -23.32 216 217 219
15.505898 9.698459 -23.513 220 219 220
15.505898 9.698459 -23.717 218 218 218
15.80126 9.883202 -23.909 218 217 219
15.80126 9.883202 -24.114 216 215 215
16.09776 10.067986 -24.306 214 213 213
16.09776 10.067986 -24.51 211 210 210
16.39308 10.253867 -24.702 209 209 209
16.39308 10.253867 -24.906 208 208 208
16.39308 10.253867 -25.11 205 209 210
16.39308 10.253867 -25.314 208 209 211
16.68848 10.437473 -25.505 208 210 212
16.982704 10.622177 -25.696 212 211 211
16.982704 10.622177 -25.9 214 215 217
16.982704 10.622177 -26.104 216 216 216
16.982704 10.622177 -26.308 215 216 218
17.276926 10.806881 -26.499 215 216 218
17.57119 10.990446 -26.689 216 216 218
17.57119 10.990446 -26.893 216 216 218
17.57119 10.990446 -27.096 217 216 216
17.57119 10.990446 -27.3 217 216 216
17.57119 10.990446 -27.504 216 216 216
17.57119 10.990446 -27.708 216 215 215
17.865454 11.174012 -27.897 218 218 219
19.329983 12.090462 -28.03 236 235 236
19.329983 12.090462 -28.233 233 233 236
18.158579 11.357537 -28.494 220 220 220
18.158579 11.357537 -28.697 208 208 208
18.158579 11.357537 -28.901 201 200 198
18.158579 11.357537 -29.104 197 196 195
18.158579 11.357537 -29.308 197 196 196
18.452843 11.541103 -29.496 197 198 200
18.452843 11.541103 -29.7 208 208 210
18.452843 11.541103 -29.903 215 215 216
18.74483 11.724588 -30.092 213 212 212
18.74483 11.724588 -30.295 206 205 204
18.74483 11.724588 -30.498 199 198 198
18.74483 11.724588 -30.702 193 192 191
18.74483 11.724588 -30.905 191 190 189
18.74483 11.724588 -31.108 191 190 190
18.74483 11.724588 -31.311 192 192 192
19.037954 11.908114 -31.499 181 181 181
19.037954 11.908114 -31.702 175 177 179
20.496918 12.820949 -31.825 201 197 195
20.496918 12.820949 -32.028 199 197 195
19.329983 12.090462 -32.295 187 189 189
19.329983 12.090462 -32.499 190 190 185
19.329983 12.090462 -32.702 179 179 177
19.329983 12.090462 -32.905 169 168 167
19.623108 12.273987 -33.091 170 167 167
19.623108 12.273987 -33.294 172 170 170
19.914 12.456294 -33.48 177 176 176
19.914 12.456294 -33.683 181 180 180
20.206026 12.638641 -33.869 190 189 188
20.206026 12.638641 -34.072 207 207 207
20.496918 12.820949 -34.257 219 218 218
20.496918 12.820949 -34.46 222 222 224
20.496918 12.820949 -34.663 225 225 225
20.496918 12.820949 -34.866 229 229 230
20.787848 13.002118 -35.051 230 230 231
20.787848 13.002118 -35.253 232 232 234
20.787848 13.002118 -35.456 237 237 239
20.787848 13.002118 -35.658 240 240 240
20.787848 13.002118 -35.861 242 242 242
20.787848 13.002118 -36.064 216 216 216
20.787848 13.002118 -36.266 195 194 194
20.787848 13.002118 -36.469 212 206 203
20.787848 13.002118 -36.671 221 216 214
20.787848 13.002118 -36.874 226 222 220
20.787848 13.002118 -37.077 231 228 223
21.078737 13.184425 -37.261 224 222 220
21.078737 13.184425 -37.463 219 215 212
21.078737 13.184425 -37.666 214 210 207
21.369669 13.365595 -37.849 222 221 221
21.369669 13.365595 -38.051 221 221 221
21.369669 13.365595 -38.254 215 214 214
21.369669 13.365595 -38.456 204 202 201
21.65942 13.547862 -38.639 195 194 193
21.65942 13.547862 -38.841 210 209 207
21.369669 13.365595 -39.063 220 220 218
21.369669 13.365595 -39.266 225 225 225
21.369669 13.365595 -39.468 230 230 230
21.369669 13.365595 -39.671 233 234 235
21.369669 13.365595 -39.873 236 237 238
21.65942 13.547862 -40.055 236 237 237
21.949213 13.7289915 -40.237 237 236 236
21.949213 13.7289915 -40.44 226 225 224
22.5277 14.090072 -40.601 157 153 153
10.125875 6.33323 -45.808 135 134 134
9.219715 5.7668967 -46.086 120 114 116
8.613386 5.387744 -46.34 49 49 49
8.613386 5.387744 -46.547 20 14 14
8.310221 5.1981673 -46.778 48 33 29
8.916551 5.57732 -46.936 53 45 37
8.310221 5.1981673 -47.192 50 42 37
-1.8734154 -1.1822292 -3.579 174 173 175
-0.6237283 -0.39366737 -3.782 173 172 174
0.3112953 0.19681133 -3.986 173 172 172
0.6214977 0.39244035 -4.194 172 172 172
-0.6237283 -0.39366737 -4.412 169 163 165
1.5532424 0.9793721 -4.606 179 178 178
0.3112953 0.19681133 -4.825 176 172 173
0.9328377 0.5881141 -5.03 180 180 180
0.9328377 0.5881141 -5.239 185 185 186
1.5532424 0.9793721 -5.443 188 187 187
1.8623072 1.1749564 -5.65 188 187 187
1.8623072 1.1749564 -5.859 188 188 188
2.171372 1.3705407 -6.065 186 187 189
2.7895908 1.7594341 -6.267 186 186 190
2.7895908 1.7594341 -6.476 184 185 189
3.0975626 1.9538361 -6.682 188 187 189
3.0975626 1.9538361 -6.891 187 188 190
3.4055345 2.1482382 -7.096 190 190 194
3.7135062 2.3426402 -7.301 194 194 197
3.7135062 2.3426402 -7.509 192 192 195
4.0203404 2.5369973 -7.714 191 190 190
4.3272195 2.730217 -7.918 186 185 185
4.634098 2.9234366 -8.122 182 182 181
4.9398394 3.1166117 -8.326 180 180 180
5.2467184 3.3098314 -8.53 181 180 180
5.5524597 3.5030062 -8.734 186 185 186
5.5524597 3.5030062 -8.942 191 191 193
5.8570633 3.6961365 -9.145 190 190 192
6.1628494 3.8881738 -9.348 185 185 186
6.1628494 3.8881738 -9.556 185 185 187
6.4674973 4.0801663 -9.758 185 185 187
6.772101 4.273297 -9.961 183 184 186
6.772101 4.273297 -10.168 184 186 188
7.075612 4.465245 -10.37 186 187 187
7.380305 4.6561 -10.572 185 186 186
7.380305 4.6561 -10.78 183 183 183
7.380305 4.6561 -10.987 181 180 180
7.6838155 4.8480477 -11.188 189 188 188
7.6838155 4.8480477 -11.396 194 193 194
7.987371 5.038858 -11.597 200 198 199
7.987371 5.038858 -11.804 194 193 193
7.987371 5.038858 -12.011 188 187 187
8.289744 5.230761 -12.212 189 188 191
8.592162 5.421527 -12.412 191 190 190
8.592162 5.421527 -12.619 194 193 195
8.89458 5.6122923 -12.82 194 193 193
9.196998 5.803058 -13.02 193 193 195
9.196998 5.803058 -13.226 198 197 197
9.196998 5.803058 -13.433 201 200 200
9.7996025 6.183362 -13.832 196 196 196
9.7996025 6.183362 -14.039 195 194 194
9.7996025 6.183362 -14.245 194 194 194
10.100927 6.3729453 -14.444 193 193 195
10.401114 6.5624843 -14.643 194 194 194
10.401114 6.5624843 -14.849 201 201 201
10.401114 6.5624843 -15.055 203 203 203
10.401114 6.5624843 -15.262 202 201 201
10.702439 6.7520676 -15.46 203 202 202
11.002626 6.941606 -15.658 205 201 202
11.002626 6.941606 -15.864 199 199 199
11.002626 6.941606 -16.07 197 196 196
11.002626 6.941606 -16.276 203 203 205
11.301676 7.1310997 -16.474 207 207 209
11.601908 7.319501 -16.671 213 215 218
11.601908 7.319501 -16.877 213 216 219
11.601908 7.319501 -17.083 215 216 220
11.900957 7.5089946 -17.28 217 218 222
13.689879 8.637771 -17.432 219 219 223
12.200051 7.697351 -17.682 221 222 224
12.200051 7.697351 -17.888 222 222 224
12.200051 7.697351 -18.093 222 222 223
12.498008 7.8856626 -18.29 222 222 222
12.498008 7.8856626 -18.495 220 220 221
12.795965 8.073974 -18.691 216 216 216
12.795965 8.073974 -18.896 214 214 214
12.795965 8.073974 -19.102 212 212 212
13.093922 8.262285 -19.297 205 204 204
13.391923 8.449459 -19.493 198 198 198
13.391923 8.449459 -19.698 194 194 193
13.391923 8.449459 -19.903 191 191 190
13.689879 8.637771 -20.098 188 188 188
13.986743 8.824901 -20.293 191 190 191
13.986743 8.824901 -20.498 198 198 199
13.986743 8.824901 -20.703 206 206 207
13.986743 8.824901 -20.908 214 213 214
14.283607 9.01203 -21.102 215 214 214
14.283607 9.01203 -21.307 214 213 213
14.579333 9.199114 -21.501 213 213 213
14.579333 9.199114 -21.706 213 213 213
14.579333 9.199114 -21.91 211 212 212
14.579333 9.199114 -22.115 210 211 211
15.1719675 9.57219 -22.297 210 211 213
15.1719675 9.57219 -22.502 212 212 214
15.1719675 9.57219 -22.706 213 214 216
15.1719675 9.57219 -22.911 215 215 217
15.1719675 9.57219 -23.115 216 216 218
15.1719675 9.57219 -23.32 218 218 220
15.467693 9.7592745 -23.513 220 220 221
15.467693 9.7592745 -23.717 222 222 222
15.762326 9.945177 -23.909 220 219 219
15.762326 9.945177 -24.114 217 216 216
15.762326 9.945177 -24.318 212 211 211
16.058098 10.131124 -24.51 202 201 201
16.352686 10.318164 -24.702 210 209 209
16.352686 10.318164 -24.906 211 210 210
16.352686 10.318164 -25.11 208 208 210
16.352686 10.318164 -25.314 211 211 211
16.352686 10.318164 -25.518 216 215 215
16.647364 10.502929 -25.709 217 216 216
16.647364 10.502929 -25.913 218 217 217
16.940859 10.688786 -26.104 218 217 219
16.940859 10.688786 -26.308 216 215 217
17.234354 10.874643 -26.499 216 216 217
18.991045 11.982784 -26.622 221 221 221
17.527895 11.059363 -26.893 217 216 216
17.527895 11.059363 -27.096 216 216 218
17.527895 11.059363 -27.3 215 215 217
17.527895 11.059363 -27.504 215 215 217
17.527895 11.059363 -27.708 213 214 216
17.821436 11.244083 -27.897 216 217 217
17.821436 11.244083 -28.101 219 219 219
19.574759 12.350952 -28.219 231 232 234
19.574759 12.350952 -28.422 229 230 232
19.574759 12.350952 -28.625 226 226 227
18.113838 11.428759 -28.901 200 200 198
18.113838 11.428759 -29.104 194 194 193
18.113838 11.428759 -29.308 191 190 190
18.113838 11.428759 -29.511 193 193 193
18.407377 11.613478 -29.7 201 203 204
19.86493 12.5344 -29.828 204 205 207
18.698643 11.798109 -30.092 215 215 215
18.698643 11.798109 -30.295 207 207 207
18.698643 11.798109 -30.498 200 200 198
18.698643 11.798109 -30.702 194 193 189
18.698643 11.798109 -30.905 188 188 187
18.698643 11.798109 -31.108 188 188 188
18.698643 11.798109 -31.311 188 189 189
18.991045 11.982784 -31.499 184 180 180
18.991045 11.982784 -31.702 182 179 179
18.991045 11.982784 -31.905 190 187 187
20.446411 12.901341 -32.028 201 197 194
19.282354 12.166277 -32.295 195 193 194
19.282354 12.166277 -32.499 189 188 188
19.282354 12.166277 -32.702 175 174 174
19.282354 12.166277 -32.905 165 164 164
19.574759 12.350952 -33.091 166 164 164
19.574759 12.350952 -33.294 170 170 170
19.86493 12.5344 -33.48 180 179 179
19.86493 12.5344 -33.683 187 187 187
20.156239 12.717893 -33.869 193 195 196
20.156239 12.717893 -34.072 204 205 205
20.446411 12.901341 -34.257 216 217 219
20.446411 12.901341 -34.46 222 223 225
20.446411 12.901341 -34.663 225 226 228
20.446411 12.901341 -34.866 229 230 232
20.736628 13.083652 -35.051 231 233 234
20.736628 13.083652 -35.253 235 236 236
20.736628 13.083652 -35.456 237 238 238
20.736628 13.083652 -35.658 237 238 238
20.736628 13.083652 -35.861 239 239 239
20.736628 13.083652 -36.064 225 224 224
20.736628 13.083652 -36.266 197 196 196
20.736628 13.083652 -36.469 206 201 201
20.736628 13.083652 -36.671 219 217 215
20.736628 13.083652 -36.874 225 222 221
20.736628 13.083652 -37.077 226 224 222
21.0268 13.267099 -37.261 224 223 221
20.736628 13.083652 -37.482 223 223 218
21.0268 13.267099 -37.666 216 216 214
21.0268 13.267099 -37.868 217 217 217
21.317017 13.44941 -38.051 223 222 222
21.317017 13.44941 -38.254 218 217 216
21.317017 13.44941 -38.456 207 204 204
21.317017 13.44941 -38.659 197 196 196
21.317017 13.44941 -38.861 203 202 202
21.60605 13.632813 -39.044 218 218 218
21.317017 13.44941 -39.266 225 225 225
21.317017 13.44941 -39.468 230 230 230
21.317017 13.44941 -39.671 232 233 234
21.317017 13.44941 -39.873 236 237 238
21.317017 13.44941 -40.075 236 237 237
21.60605 13.632813 -40.258 237 237 237
21.60605 13.632813 -40.46 232 231 231
21.89513 13.81508 -40.642 199 199 198
22.760138 14.36065 -40.782 124 121 122
9.4983225 5.9926414 -46.062 99 99 99
8.289744 5.230761 -46.364 81 80 80
7.987371 5.038858 -46.595 8 4 3
7.987371 5.038858 -46.802 29 19 19
8.592162 5.421527 -46.961 54 45 35
8.289744 5.230761 -47.192 48 42 40
-1.8687583 -1.1895769 -3.579 171 172 176
-1.8687583 -1.1895769 -3.79 172 172 174
0.31052002 0.19803227 -3.986 165 165 165
0.6199518 0.39487794 -4.194 169 169 170
-0.62217754 -0.39611372 -4.412 169 160 161
0.6199518 0.39487794 -4.823 172 170 170
0.930521 0.59177274 -5.03 179 178 180
0.930521 0.59177274 -5.239 184 184 186
1.5493845 0.9854641 -5.443 187 187 189
1.5493845 0.9854641 -5.652 188 188 190
1.8576788 1.1822606 -5.859 187 187 190
2.1659732 1.379057 -6.065 187 187 191
2.78266 1.7703751 -6.267 185 186 188
2.78266 1.7703751 -6.476 185 185 187
3.0898662 1.9659851 -6.682 186 187 189
3.0898662 1.9659851 -6.891 188 188 190
3.397072 2.1615949 -7.096 192 192 194
3.7042782 2.357205 -7.301 193 193 196
3.7042782 2.357205 -7.509 190 191 193
4.010347 2.5527656 -7.714 190 190 190
4.3164644 2.7471888 -7.918 187 187 188
4.6225824 2.9416122 -8.122 183 185 186
4.9275627 3.1359863 -8.326 183 184 185
5.2336802 3.3304095 -8.53 183 184 184
5.5386605 3.5247836 -8.734 188 189 189
5.5386605 3.5247836 -8.942 191 191 191
5.8425035 3.7191086 -9.145 190 190 190
6.147533 3.9123452 -9.348 189 188 188
6.147533 3.9123452 -9.556 189 188 188
6.451425 4.1055326 -9.758 189 188 188
6.7552676 4.2998576 -9.961 186 185 185
6.7552676 4.2998576 -10.168 186 185 185
7.0580225 4.492996 -10.37 185 184 184
7.3619637 4.685046 -10.572 184 183 183
7.3619637 4.685046 -10.78 182 182 183
7.3619637 4.685046 -10.987 182 182 184
7.664718 4.8781843 -11.188 189 188 189
7.664718 4.8781843 -11.396 194 193 193
7.9675217 5.070185 -11.597 195 195 195
7.9675217 5.070185 -11.804 190 190 192
7.9675217 5.070185 -12.011 186 186 187
8.269139 5.2632747 -12.212 187 186 186
8.570806 5.4552264 -12.412 190 191 191
8.570806 5.4552264 -12.619 193 194 194
9.174138 5.83913 -12.813 188 189 189
9.174138 5.83913 -13.02 196 195 195
9.174138 5.83913 -13.226 202 200 200
9.174138 5.83913 -13.433 204 200 201
9.775245 6.2217975 -13.832 199 199 201
9.775245 6.2217975 -14.039 196 195 197
9.775245 6.2217975 -14.245 195 195 199
10.075823 6.4125624 -14.444 195 195 197
10.375263 6.6032786 -14.643 201 200 200
10.375263 6.6032786 -14.849 202 202 204
10.375263 6.6032786 -15.055 203 203 203
10.375263 6.6032786 -15.262 202 202 204
10.675841 6.7940435 -15.46 202 201 201
10.975282 6.9847593 -15.658 197 191 193
10.975282 6.9847593 -15.864 198 195 196
10.975282 6.9847593 -16.07 198 197 199
10.975282 6.9847593 -16.276 201 200 204
11.273585 7.1754265 -16.474 207 206 208
11.573074 7.365005 -16.671 212 212 215
11.573074 7.365005 -16.877 213 214 218
11.573074 7.365005 -17.083 215 216 218
11.871378 7.5556717 -17.28 217 218 220
11.871378 7.5556717 -17.485 217 218 220
12.16973 7.745201 -17.682 219 219 223
12.16973 7.745201 -17.888 219 219 221
12.16973 7.745201 -18.093 220 219 219
12.466945 7.934681 -18.29 222 221 221
14.248107 9.068051 -18.439 213 213 215
12.76416 8.124162 -18.691 216 215 215
12.76416 8.124162 -18.896 215 214 214
12.76416 8.124162 -19.102 212 211 211
13.061375 8.313642 -19.297 205 204 204
14.839222 9.44459 -19.443 193 193 189
13.358639 8.501985 -19.698 193 190 189
13.358639 8.501985 -19.903 188 186 183
13.655853 8.691464 -20.098 185 185 184
13.951981 8.879758 -20.293 191 190 190
13.951981 8.879758 -20.498 198 197 198
13.951981 8.879758 -20.703 205 205 206
13.951981 8.879758 -20.908 211 212 212
14.248107 9.068051 -21.102 215 215 215
14.543096 9.256296 -21.501 214 213 213
14.543096 9.256296 -21.706 214 211 211
14.543096 9.256296 -21.91 212 210 211
14.543096 9.256296 -22.115 211 210 210
14.543096 9.256296 -22.32 211 210 210
14.839222 9.44459 -22.513 211 210 210
15.134261 9.631697 -22.706 214 213 213
15.134261 9.631697 -22.911 216 216 216
15.134261 9.631697 -23.115 216 216 216
15.134261 9.631697 -23.32 217 217 217
15.134261 9.631697 -23.525 220 219 219
15.134261 9.631697 -23.729 220 219 219
15.42925 9.819941 -23.922 218 218 218
15.72315 10.006999 -24.114 217 216 216
15.72315 10.006999 -24.318 213 212 212
16.018188 10.194105 -24.51 205 204 204
16.018188 10.194105 -24.714 210 207 206
16.31204 10.382301 -24.906 208 208 208
16.31204 10.382301 -25.11 208 207 205
16.31204 10.382301 -25.314 209 208 206
16.31204 10.382301 -25.518 212 213 213
16.605991 10.568221 -25.709 213 214 214
16.898754 10.75523 -25.9 214 215 215
16.898754 10.75523 -26.104 215 216 216
16.898754 10.75523 -26.308 215 216 218
17.191517 10.942239 -26.499 215 216 216
18.943844 12.057269 -26.622 218 218 218
17.48433 11.12811 -26.893 216 216 218
17.48433 11.12811 -27.096 215 216 216
17.48433 11.12811 -27.3 213 214 216
17.48433 11.12811 -27.504 212 212 216
17.48433 11.12811 -27.708 211 211 214
17.48433 11.12811 -27.911 212 212 214
17.777142 11.313981 -28.101 216 217 218
17.777142 11.313981 -28.305 210 211 212
19.23443 12.241904 -28.436 227 231 233
19.23443 12.241904 -28.639 226 227 229
19.526104 12.427727 -28.828 221 221 222
18.068817 11.499803 -29.104 188 195 194
18.068817 11.499803 -29.308 194 197 196
18.068817 11.499803 -29.511 197 198 198
18.36163 11.685674 -29.7 202 201 201
18.36163 11.685674 -29.903 210 210 210
18.652168 11.871447 -30.092 213 213 214
18.652168 11.871447 -30.295 206 206 206
18.652168 11.871447 -30.498 201 201 201
18.652168 11.871447 -30.702 196 195 195
18.652168 11.871447 -30.905 191 190 191
18.652168 11.871447 -31.108 189 189 189
18.652168 11.871447 -31.311 192 192 192
18.943844 12.057269 -31.702 186 183 184
18.943844 12.057269 -31.905 190 188 190
19.23443 12.241904 -32.092 188 187 190
19.23443 12.241904 -32.295 193 192 194
19.23443 12.241904 -32.499 186 185 186
19.23443 12.241904 -32.702 176 173 172
19.23443 12.241904 -32.905 170 168 168
19.526104 12.427727 -33.091 171 171 171
19.526104 12.427727 -33.294 172 172 172
19.815554 12.612312 -33.48 170 170 170
19.815554 12.612312 -33.683 182 181 181
19.815554 12.612312 -33.886 204 203 203
20.10614 12.796948 -34.072 205 204 204
20.10614 12.796948 -34.275 207 206 206
20.39559 12.981534 -34.46 218 219 219
20.39559 12.981534 -34.663 224 224 226
20.39559 12.981534 -34.866 229 229 231
20.68509 13.164983 -35.051 231 232 233
20.68509 13.164983 -35.253 236 236 237
20.68509 13.164983 -35.456 238 238 238
20.68509 13.164983 -35.658 242 241 241
20.68509 13.164983 -35.861 242 242 242
20.68509 13.164983 -36.064 222 221 221
20.68509 13.164983 -36.266 197 197 196
20.68509 13.164983 -36.469 209 202 195
20.68509 13.164983 -36.671 217 216 214
20.68509 13.164983 -36.874 221 221 219
20.68509 13.164983 -37.077 225 225 223
20.68509 13.164983 -37.279 228 227 226
20.68509 13.164983 -37.482 219 218 216
20.974539 13.349569 -37.666 213 210 209
20.974539 13.349569 -37.868 220 219 219
20.974539 13.349569 -38.071 227 227 227
21.264036 13.533018 -38.254 218 218 217
21.264036 13.533018 -38.456 206 205 205
21.264036 13.533018 -38.659 195 194 194
21.264036 13.533018 -38.861 202 201 200
21.55235 13.717555 -39.044 219 218 217
21.264036 13.533018 -39.266 226 225 225
21.264036 13.533018 -39.468 231 231 230
21.264036 13.533018 -39.671 235 235 236
21.264036 13.533018 -39.873 237 238 238
21.55235 13.717555 -40.055 236 237 238
21.55235 13.717555 -40.258 236 237 238
21.55235 13.717555 -40.46 232 232 232
21.84071 13.900955 -40.642 202 201 201
22.416344 14.266567 -40.803 129 127 126
9.474716 6.029895 -46.062 110 109 109
8.269139 5.2632747 -46.364 83 83 83
7.9675217 5.070185 -46.595 6 5 5
8.269139 5.2632747 -46.778 38 28 24
8.269139 5.2632747 -46.985 57 47 42
8.269139 5.2632747 -47.192 50 45 40
-2.1760333 -1.397401 -3.581 176 174 174
-0.6206172 -0.39855394 -3.782 172 171 171
0.30973998 0.19925015 -3.986 166 165 165
-0.93035716 -0.59780407 -4.204 165 162 162
1.2368463 0.7934816 -4.399 180 179 179
0.30973998 0.19925015 -4.615 170 169 171
0.61839634 0.39730942 -4.823 173 171 171
0.92818993 0.5954223 -5.03 177 177 177
0.92818993 0.5954223 -5.239 185 185 186
1.5455027 0.9915409 -5.443 187 187 187
1.8530217 1.1895466 -5.65 187 187 187
2.1605408 1.3875521 -5.856 186 186 186
2.1605408 1.3875521 -6.065 186 187 187
2.4681137 1.5844206 -6.271 185 185 185
2.7756863 1.781289 -6.476 184 183 183
3.0821218 1.9781038 -6.682 189 188 188
3.3885574 2.1749187 -6.887 192 191 191
3.6949928 2.3717334 -7.092 198 198 200
3.6949928 2.3717334 -7.301 195 195 197
3.6949928 2.3717334 -7.509 193 193 196
4.0002913 2.5684946 -7.714 192 192 194
4.305643 2.7641184 -7.918 187 189 190
4.610995 2.9597423 -8.122 185 186 186
4.91521 3.1553125 -8.326 181 182 182
5.2205615 3.3509364 -8.53 183 183 183
5.524776 3.5465066 -8.734 188 189 189
5.524776 3.5465066 -8.942 192 193 194
5.8278537 3.7420232 -9.145 193 192 193
6.132122 3.9364564 -9.348 190 189 189
6.132122 3.9364564 -9.556 189 188 188
6.4352527 4.1308355 -9.758 187 186 186
6.7383304 4.3263526 -9.961 184 184 185
6.7383304 4.3263526 -10.168 186 185 185
7.040324 4.520678 -10.37 186 185 185
7.3435087 4.71392 -10.572 185 181 181
7.3435087 4.71392 -10.78 184 181 182
7.3435087 4.71392 -10.987 182 181 183
7.6455026 4.908246 -11.188 187 186 187
7.6455026 4.908246 -11.396 194 193 193
7.94755 5.1014347 -11.597 199 198 198
7.94755 5.1014347 -11.804 194 193 193
7.94755 5.1014347 -12.011 187 186 186
